# .PCD v0.7 - Point Cloud Data file format
VERSION 0.7
FIELDS x y z
SIZE 4 4 4
TYPE F F F
COUNT 1 1 1
WIDTH 1261
HEIGHT 1
VIEWPOINT 0 0 0 1 0 0 0
POINTS 1261
DATA ascii
-0.092076994 -0.012522914 0.011247727
-0.093447663 -0.010543474 0.011251346
-0.095199049 -0.0089125689 0.01123358
-0.096293196 -0.007190628 0.011239995
-0.092654705 -0.0084426757 0.011330127
-0.093804196 -0.006932579 0.011406419
-0.095432051 -0.0054552038 0.011562156
-0.096842386 -0.0038667184 0.011415699
-0.093111135 -0.0050312248 0.011399905
-0.093919367 -0.0035420081 0.011410073
-0.095791019 -0.0018996065 0.011388584
-0.096755542 -0.00016436688 0.011399637
-0.093431816 -0.0019202207 0.011466729
-0.094516605 -0.00017348106 0.011474089
-0.096052028 0.001479476 0.011464077
-0.093532674 0.0019617723 0.011560109
-0.094770469 0.0034444791 0.011555771
-0.095708326 0.0049204561 0.011561257
-0.093488947 0.0054095061 0.011647466
-0.094818965 0.0070199668 0.011643234
-0.096109152 0.008809194 0.011644783
-0.093796656 0.0090457769 0.011727816
-0.095518731 0.010703469 0.01171169
-0.093213014 0.011201332 0.01180097
-0.094284937 0.012453985 0.01179644
-0.044454377 -0.081123285 0.01012564
-0.046464037 -0.079487272 0.010099396
-0.048186585 -0.078084961 0.010076907
-0.050461885 -0.076423518 0.010042406
-0.052439343 -0.075099923 0.010009437
-0.054161891 -0.073697619 0.0099869324
-0.056171544 -0.072061598 0.0099606737
-0.0581812 -0.070425585 0.00993443
-0.06019086 -0.068789572 0.0099081723
-0.062200509 -0.067153551 0.0098819286
-0.06366282 -0.065724634 0.0098687848
-0.065699309 -0.063828275 0.0098481188
-0.067421854 -0.062425967 0.0098256143
-0.034153938 -0.086646661 0.010331501
-0.035603911 -0.085847914 0.010303054
-0.037505135 -0.08475326 0.010266911
-0.039334163 -0.082998209 0.0099994745
-0.041345917 -0.081360459 0.0099732028
-0.043351561 -0.079930358 0.0097632054
-0.045231842 -0.078179717 0.0096011553
-0.047193959 -0.076723538 0.0095600421
-0.049096469 -0.075325862 0.0094223525
-0.051014442 -0.073598929 0.0092936372
-0.053003948 -0.072056212 0.0093157953
-0.055019945 -0.07041505 0.009289436
-0.057035908 -0.068773836 0.0092631662
-0.058886047 -0.067356385 0.0092944698
-0.060760375 -0.06561505 0.0093010524
-0.062704287 -0.064065762 0.0094416365
-0.064634725 -0.062604174 0.0094852112
-0.066500336 -0.060838994 0.0093954997
-0.068361066 -0.059368044 0.0096203163
-0.070256159 -0.057892624 0.0098440498
-0.072050273 -0.055796076 0.0098364828
-0.024247957 -0.090894975 0.010555979
-0.02568344 -0.089726411 0.010537227
-0.027926503 -0.088377349 0.010496031
-0.029907921 -0.087280743 0.010346082
-0.032199271 -0.085963979 0.010100943
-0.034278113 -0.084369093 0.0098002739
-0.036047112 -0.082989439 0.0096088219
-0.038129266 -0.081385978 0.0093291663
-0.04014736 -0.07974308 0.0093027931
-0.042111568 -0.078623071 0.0092652002
-0.043841392 -0.077214912 0.0092425933
-0.059697852 -0.06430646 0.0090354634
-0.061715949 -0.062663563 0.0090091052
-0.063445769 -0.061255399 0.0089865141
-0.065543085 -0.059356421 0.0089638894
-0.067247547 -0.057681415 0.0089487843
-0.069067866 -0.056205802 0.0092823105
-0.070879526 -0.054431666 0.0093375938
-0.072968766 -0.052729901 0.0096945809
-0.074669085 -0.050802242 0.0098735644
-0.076176234 -0.049302734 0.0098606618
-0.077898689 -0.047537133 0.0098472154
-0.079369918 -0.046021409 0.0098359408
-0.018253967 -0.092912659 0.0107056
-0.020751934 -0.09164232 0.01065394
-0.022762189 -0.09023463 0.010510773
-0.024835559 -0.088651747 0.010175275
-0.026926579 -0.087074973 0.0097833984
-0.028755933 -0.085937336 0.0095283333
-0.030924534 -0.084664628 0.0094877053
-0.032632768 -0.083465591 0.0094606178
-0.069823436 -0.053189449 0.0089748167
-0.071607143 -0.051258404 0.0089634452
-0.073390819 -0.049327314 0.0089520589
-0.075269029 -0.047681551 0.0092640817
-0.077071063 -0.046041913 0.0097452598
-0.079010434 -0.044406097 0.0098881563
-0.080517448 -0.042543259 0.0098843127
-0.011578406 -0.096439101 0.010840314
-0.01337984 -0.094781771 0.01082155
-0.015578431 -0.093024597 0.010691932
-0.017144406 -0.091540083 0.010443183
-0.019219711 -0.090079695 0.010010001
-0.021518501 -0.088801265 0.0096983165
-0.0236704 -0.08756835 0.0096572703
-0.025460375 -0.08643052 0.0096259238
-0.073318139 -0.047470555 0.0090007652
-0.074399136 -0.046207331 0.008996198
-0.075863019 -0.044560578 0.0089884298
-0.07746201 -0.042617775 0.0091085639
-0.079519555 -0.040857412 0.0096260114
-0.081253752 -0.039306194 0.0097402735
-0.082858071 -0.037696309 0.0099270474
-0.0082218703 -0.095832579 0.010967386
-0.0099682407 -0.094463333 0.01077648
-0.012020324 -0.09287867 0.010476406
-0.013979143 -0.091276146 0.010070029
-0.015786508 -0.090090588 0.0098573202
-0.017242556 -0.089288473 0.0098287566
-0.076920621 -0.040705875 0.0090491977
-0.078289889 -0.039207928 0.0090408484
-0.079999529 -0.03765507 0.0092227189
-0.081677325 -0.036107704 0.0094722239
-0.083577417 -0.034305338 0.0099160951
-0.085270286 -0.03215519 0.009984659
-0.086759441 -0.030465923 0.0099771218
-0.0045885984 -0.095476657 0.011013989
-0.0066749975 -0.093956344 0.010398468
-0.0084481556 -0.092615843 0.010039107
-0.010586591 -0.091513656 0.0099952668
-0.012376531 -0.090375781 0.0099639213
-0.080739506 -0.034403615 0.0090788687
-0.082383558 -0.032546334 0.009070348
-0.084007472 -0.031107323 0.0093522985
-0.085699432 -0.029416976 0.0097656455
-0.087444991 -0.027642069 0.01002459
0.00081328215 -0.096679807 0.010785599
-0.00099619396 -0.095205657 0.010640082
-0.0030410327 -0.093740582 0.010258117
-0.0053635347 -0.092526726 0.01014421
-0.0069339606 -0.09193255 0.010106636
-0.083333388 -0.029737387 0.0091086458
-0.084777832 -0.027603494 0.0091136275
-0.086375222 -0.025742747 0.0097072534
-0.087905869 -0.023921486 0.010010966
-0.089006215 -0.022276932 0.010106244
0.0043473793 -0.096326418 0.010373336
0.0023292839 -0.09468352 0.010346993
0.00061296462 -0.093406044 0.010321594
-0.0013108203 -0.092678189 0.010275574
-0.085233003 -0.024119455 0.0091852723
-0.086677082 -0.022178346 0.0093523217
-0.088508755 -0.020394169 0.010078754
-0.089902438 -0.018685356 0.010165847
0.0080062775 -0.095952101 0.010504681
0.0059700808 -0.094499782 0.010472948
0.0035697061 -0.09339419 0.010420481
-0.085985728 -0.020233575 0.0092570083
-0.087262958 -0.0184747 0.0094726942
-0.088879727 -0.016959392 0.0099927345
-0.090523556 -0.015381402 0.010227456
0.011430791 -0.095865935 0.010621053
0.0094811199 -0.094374567 0.010593186
0.0080251032 -0.093572408 0.010564608
-0.086248942 -0.016825981 0.0093331272
-0.087591715 -0.015202191 0.0095289946
-0.089229219 -0.013689118 0.0098457076
-0.091112122 -0.011931239 0.01029381
-0.092376411 -0.0099934824 0.010299928
-0.086860627 -0.013454023 0.0093967523
-0.088161729 -0.011649719 0.0093983235
-0.089971811 -0.009984646 0.0096524032
-0.091428235 -0.0083534196 0.010261182
-0.092351422 -0.0068338444 0.010379472
0.020947205 -0.095949091 0.010936323
0.019740112 -0.094487421 0.010932471
-0.088793471 -0.0083678905 0.0094590355
-0.0901765 -0.0066487961 0.0096866908
-0.091678686 -0.0051309746 0.01019413
-0.093020461 -0.0037452185 0.01043413
0.022119569 -0.094491325 0.011095106
0.020677727 -0.093334705 0.010992466
-0.089345001 -0.0047256122 0.0095313862
-0.090541005 -0.0031123522 0.0097626941
-0.092295818 -0.0015505343 0.010446263
-0.093336277 0.00016878196 0.01052112
0.02553916 -0.094220154 0.01213337
0.023525685 -0.092729673 0.01135275
0.021615338 -0.09218201 0.011052446
-0.089896493 -0.0010832781 0.0096037528
-0.091014735 0.00054859859 0.010024145
-0.092613235 0.0020843847 0.010592948
0.028789293 -0.093427442 0.011927879
0.02717752 -0.092274703 0.01190287
0.025305595 -0.091179989 0.011200459
-0.090219907 0.0020539449 0.0096711451
-0.091183648 0.003947278 0.010153262
-0.092598535 0.0057691392 0.010685259
0.030555176 -0.09179575 0.011360194
0.028838847 -0.090518273 0.011334809
0.027203346 -0.090025164 0.011292542
-0.089927189 0.0060468018 0.0097803911
-0.091326341 0.0075503513 0.010505155
-0.092800789 0.0094316946 0.010769793
0.033510841 -0.092285991 0.011446546
0.031492755 -0.0906431 0.011420173
-0.088649102 0.0082779257 0.010879469
-0.090084605 0.0094464999 0.010860733
-0.09209425 0.011082508 0.010834458
-0.093421869 0.012735691 0.010831387
-0.09507253 0.01446103 0.010819341
-0.088874727 0.011429111 0.01034997
-0.090419583 0.012934363 0.010320503
-0.092055775 0.014496543 0.010706385
-0.094192512 0.016129637 0.010890278
-0.08751858 0.013426492 0.010044589
-0.088725716 0.014888127 0.010040752
-0.090622276 0.016465262 0.010267038
-0.092558533 0.018138416 0.010994813
-0.088364691 0.016510248 0.010093211
-0.089384429 0.018519459 0.010109255
-0.091114305 0.020056797 0.010733281
-0.088300109 0.021008177 0.010207431
-0.089812532 0.022242708 0.010545242
-0.091533743 0.023505038 0.011162705
-0.08820454 0.023924047 0.010283298
-0.089771278 0.025379574 0.010934549
-0.091622338 0.026916143 0.011244708
-0.086973697 0.026075501 0.010377937
-0.088268802 0.02734486 0.010443359
-0.090030558 0.029005874 0.01068261
-0.085837625 0.027864924 0.010460408
-0.086522028 0.029380072 0.010475327
-0.088540122 0.031022962 0.010448954
-0.090269923 0.032431182 0.010426378
-0.085665278 0.031317089 0.010552173
-0.087133721 0.032752033 0.010538938
-0.089151815 0.034394924 0.010512594
-0.083348215 0.034460273 0.010707754
-0.085492916 0.034769241 0.010643908
-0.087511003 0.036412131 0.01061755
-0.088930339 0.037940167 0.010608313
-0.082410611 0.035612985 0.010767748
-0.08385209 0.036786508 0.010748896
-0.085870177 0.038429398 0.010722551
-0.087599978 0.039837543 0.01069996
-0.081473 0.036765691 0.010827727
-0.082851164 0.038606174 0.010827639
-0.084463768 0.040158462 0.010812535
-0.086180069 0.04143592 0.010787151
-0.082372986 0.040372327 0.010887585
-0.083526142 0.04131116 0.010872514
-0.084679343 0.04224994 0.010857458
-0.079505585 0.0464404 0.011356828
-0.081080355 0.047931876 0.011452681
-0.078945912 0.048120417 0.011194925
-0.079630293 0.049635552 0.011209858
-0.07866361 0.051530965 0.01128932
-0.080242023 0.053007461 0.011273452
-0.079304412 0.05416017 0.011333463
-0.037684955 -0.080665156 0.0083610574
-0.039711528 -0.079015426 0.0083345827
-0.041683916 -0.077890687 0.0082968399
-0.043885432 -0.076258846 0.0082640834
-0.045682322 -0.074632533 0.0079367012
-0.047548238 -0.073204331 0.0079678427
-0.049550552 -0.071652941 0.0079897521
-0.051479883 -0.069912903 0.0078609902
-0.053344402 -0.068485819 0.0078921169
-0.055355564 -0.067017116 0.007968884
-0.057552647 -0.065453358 0.0080775619
-0.05905427 -0.063749842 0.0080699371
-0.061080851 -0.06210012 0.0080434633
-0.063107386 -0.060450353 0.0080169896
-0.0648444 -0.059036251 0.0079942979
-0.066635579 -0.057097122 0.0079828752
-0.026537698 -0.08589188 0.0086025521
-0.028289337 -0.084850714 0.0085700881
-0.030206569 -0.08374691 0.0085336464
-0.032436803 -0.082326427 0.0084946752
-0.034501918 -0.080879591 0.0083784387
-0.036522936 -0.079440586 0.00814436
-0.038450055 -0.077694423 0.0078376234
-0.040393617 -0.076027304 0.0074569229
-0.042047665 -0.074566863 0.0073666563
-0.043870892 -0.072836652 0.0070630424
-0.045814112 -0.071075089 0.0067561278
-0.047775663 -0.06959223 0.0067992005
-0.049735475 -0.068110764 0.0068421811
-0.051597003 -0.066319056 0.0068247896
-0.053755999 -0.064922124 0.0071450649
-0.05571099 -0.063444361 0.0071882103
-0.057629362 -0.061882153 0.0071631512
-0.059763581 -0.060634561 0.0074310284
-0.061701797 -0.058886342 0.0073021464
-0.063614242 -0.057321977 0.0075776149
-0.065596409 -0.055770427 0.0076502571
-0.067458391 -0.054015405 0.0077242497
-0.068986863 -0.052296974 0.0080240788
-0.070759974 -0.05053284 0.0080089057
-0.072569169 -0.048418675 0.0080012493
-0.019624794 -0.088633537 0.0087647634
-0.021045277 -0.087717682 0.0087402109
-0.022938851 -0.086622812 0.0087043522
-0.024845311 -0.084965624 0.0083693182
-0.026932219 -0.083355494 0.0080687841
-0.028729085 -0.081975617 0.0077929981
-0.030786423 -0.080335625 0.007661026
-0.032955393 -0.078966498 0.0075602261
-0.034640927 -0.077299282 0.0072953654
-0.036584701 -0.075897783 0.0070537385
-0.038413361 -0.074114539 0.0065752259
-0.040426388 -0.072352253 0.0064750472
-0.042177912 -0.070926405 0.0064521683
-0.044221338 -0.069262877 0.0064254506
-0.046264749 -0.067599356 0.0063987905
-0.048016284 -0.066173509 0.0063758967
-0.050059702 -0.064509973 0.0063491771
-0.052103121 -0.062846452 0.006322518
-0.053854648 -0.061420612 0.0062996391
-0.056012336 -0.059787549 0.0063453475
-0.058092754 -0.058371853 0.0064844377
-0.059966382 -0.056939177 0.0065154303
-0.061888337 -0.055179633 0.006454085
-0.063833475 -0.053615853 0.0066617737
-0.065799154 -0.052058004 0.0068018297
-0.067664675 -0.050297726 0.0068861321
-0.06951876 -0.048859715 0.0073221046
-0.071324527 -0.047104005 0.0075417412
-0.073093958 -0.045650903 0.0078525413
-0.074884392 -0.043968603 0.0080349343
-0.013399152 -0.089853711 0.0089419642
-0.015265672 -0.089021377 0.0089004626
-0.017613459 -0.087811075 0.0087188818
-0.019696726 -0.086326204 0.0083194133
-0.021485327 -0.084949739 0.0080438647
-0.023349043 -0.083055981 0.0076952847
-0.025458857 -0.081450969 0.0073034856
-0.027229562 -0.080044366 0.0071682632
-0.029170107 -0.078463785 0.0074260337
-0.033930562 -0.075700335 0.0066082282
-0.035390165 -0.074512124 0.0065891454
-0.055240609 -0.058352262 0.0063298447
-0.056919016 -0.056597911 0.0063176062
-0.05850631 -0.055208772 0.0062992964
-0.060435146 -0.053241681 0.0062839724
-0.062355835 -0.051589947 0.0062610982
-0.064107321 -0.050164063 0.0062382193
-0.06615074 -0.048500523 0.0062115015
-0.068151161 -0.046836674 0.0062974775
-0.069951132 -0.045293413 0.0068016006
-0.071870275 -0.043616779 0.0071433475
-0.073922224 -0.042268597 0.0076423213
-0.075610712 -0.040488724 0.0078472234
-0.077351294 -0.038561266 0.0080873985
-0.079089947 -0.03661672 0.0080778776
-0.0079337619 -0.091416933 0.0090852669
-0.010163213 -0.090371586 0.0090369768
-0.01220185 -0.088970691 0.0087814601
-0.013993538 -0.087612443 0.0084219715
-0.016013451 -0.085796215 0.0076881237
-0.018000368 -0.08417666 0.0073452592
-0.019795014 -0.082791612 0.0070696911
-0.021869229 -0.081154115 0.0068745138
-0.024150006 -0.079782397 0.006832689
-0.025901534 -0.078356542 0.0068097953
-0.027402809 -0.077134341 0.0067901965
-0.06344986 -0.048759244 0.0062951287
-0.065237746 -0.046980407 0.006279855
-0.066770129 -0.045086302 0.00627595
-0.068284266 -0.043368604 0.0062682228
-0.070302829 -0.041706208 0.0063048685
-0.072236769 -0.040049192 0.0065527502
-0.074130073 -0.038504604 0.0068617575
-0.076194629 -0.036994867 0.0072551267
-0.07807599 -0.035299048 0.0077805631
-0.079781316 -0.033769168 0.0081257746
-0.081432231 -0.031904109 0.0081171887
-0.082915813 -0.03037565 0.0081057977
-0.0033369109 -0.092273153 0.0092172222
-0.0047990326 -0.091467649 0.0091885403
-0.0066191247 -0.090290695 0.0088841934
-0.008596695 -0.088687301 0.0083805481
-0.010701827 -0.087117426 0.0078489799
-0.012498941 -0.085750237 0.007489508
-0.014362763 -0.083996512 0.0071310084
-0.016580947 -0.082646176 0.0070137149
-0.01834718 -0.081596322 0.0069809724
-0.069432914 -0.040008493 0.0063136369
-0.070947088 -0.038290843 0.0063059833
-0.072461255 -0.03657319 0.006298284
-0.074642517 -0.035107266 0.0065289633
-0.076505549 -0.033571903 0.0069054225
-0.078348115 -0.031940702 0.0073433779
-0.080451235 -0.03025705 0.0076905126
-0.082212314 -0.028593531 0.0078656999
-0.083892092 -0.027079701 0.0081553608
0.0011787602 -0.092341758 0.0093661044
-0.0012810121 -0.091354936 0.0092371758
-0.0033848195 -0.089988492 0.0086887041
-0.0049899211 -0.08853478 0.0081543112
-0.007085342 -0.086837806 0.0073927091
-0.0092026833 -0.085437737 0.0071902182
-0.011139325 -0.084069036 0.0071597388
-0.012836242 -0.083172575 0.0071254764
-0.072095722 -0.03493074 0.0063513825
-0.073477559 -0.033199519 0.0063484507
-0.075124033 -0.031495381 0.0063360156
-0.076954953 -0.030046245 0.0065112021
-0.078759998 -0.028321501 0.0067487471
-0.080736339 -0.026844217 0.0072656041
-0.082629576 -0.025385523 0.0076391473
-0.084328294 -0.02353394 0.0082291663
-0.085410617 -0.021610735 0.0082409987
0.0060380679 -0.093171112 0.0095074838
0.0041715554 -0.092338778 0.0094659831
0.00237247 -0.091177724 0.0093236854
0.00029344973 -0.08947856 0.0082640937
-0.0016235454 -0.087869294 0.0076325424
-0.0036258961 -0.08691173 0.0073394617
-0.0056010983 -0.085910007 0.0072985347
-0.074466579 -0.030090563 0.006392925
-0.075688861 -0.028610591 0.0063890507
-0.077489272 -0.02651065 0.0063813059
-0.079301029 -0.024699967 0.0063660024
-0.081069812 -0.023199109 0.0069449591
-0.083159633 -0.021655874 0.0074808747
-0.084800385 -0.019998351 0.0081903208
-0.085735358 -0.018460358 0.0083086612
0.013530006 -0.096384101 0.0096772593
0.011792945 -0.094970047 0.0096545676
0.0097934632 -0.093582809 0.0096224509
0.0075257029 -0.092237853 0.0094969319
0.0057227523 -0.090652362 0.0089758877
0.003924232 -0.089354418 0.0082809944
0.0020502575 -0.087845899 0.0077363783
8.3510815e-05 -0.08657679 0.0074714702
-0.078345269 -0.022729585 0.0064469771
-0.079391107 -0.02123151 0.0064494591
-0.081482396 -0.019906286 0.0068416502
-0.083300248 -0.018283688 0.0075268634
-0.084923029 -0.016739333 0.0081056692
-0.086410023 -0.015345786 0.0083637722
0.017310129 -0.096300557 0.0098053962
0.014996408 -0.09517289 0.0097563434
0.012969867 -0.09352313 0.0097298697
0.011228302 -0.092124499 0.0096232379
0.0092652943 -0.090582609 0.008945629
0.0073051131 -0.088793561 0.0081019122
0.005535305 -0.087579511 0.0076283282
0.0038429175 -0.086727202 0.0075930944
-0.078496329 -0.019534934 0.0065215621
-0.07971856 -0.018054925 0.0065176897
-0.081651233 -0.016422329 0.0067440877
-0.083769508 -0.014747278 0.0076803481
-0.085707195 -0.013126701 0.008309071
-0.08719293 -0.011181075 0.008441438
-0.088230111 -0.0096954098 0.0084438622
0.01853939 -0.094810419 0.0098835258
0.016644089 -0.093147218 0.0098617645
0.014603797 -0.091559418 0.0094996532
0.012864036 -0.090120383 0.0087101497
0.010988352 -0.088460237 0.0079758493
0.0086450335 -0.087356865 0.0077375611
0.007054863 -0.086755276 0.0076995222
-0.079061098 -0.016650107 0.0065745981
-0.080444328 -0.014473186 0.0065826969
-0.082251236 -0.012672287 0.0068532499
-0.084032767 -0.011041903 0.0073349392
-0.086084798 -0.0095303059 0.0080646044
-0.087736361 -0.0080530792 0.0085012624
-0.088844344 -0.0063093123 0.0085077584
0.019793427 -0.092824988 0.0099748103
0.018174505 -0.091218248 0.0094937868
0.016228344 -0.089666739 0.0088503482
0.014574791 -0.088321619 0.008184243
0.012967731 -0.087042034 0.0078895641
-0.08098457 -0.010961635 0.0066521922
-0.082400873 -0.0092537617 0.0067476118
-0.084284209 -0.0078236423 0.0071541341
-0.086303122 -0.006141339 0.0077834921
-0.088257976 -0.0046390342 0.0084855063
-0.089458585 -0.0029232698 0.0085716387
0.021741185 -0.090929709 0.0099960109
0.019913122 -0.0894306 0.0089855362
0.017861418 -0.08777044 0.008145798
0.016179705 -0.08707007 0.0079959491
-0.081868567 -0.007574446 0.0067071253
-0.082976229 -0.0057908781 0.0067146169
-0.084960952 -0.0039892234 0.0071937637
-0.08709754 -0.0025510036 0.0080877505
-0.088636957 -0.00096252467 0.0085644778
-0.089662485 0.00077005383 0.0086568678
0.02486207 -0.090024859 0.010213595
0.0233752 -0.089127377 0.0095191188
0.021365484 -0.087772816 0.0084243305
0.019099722 -0.086860515 0.0080985511
-0.082427032 -0.0038864464 0.0067803701
-0.083591804 -0.0023699088 0.0068794247
-0.085221007 -0.00074427208 0.0074934158
-0.08722356 0.00080972916 0.0080112983
-0.088880531 0.0024387559 0.0085243415
-0.089987226 0.003920435 0.0087245302
0.02873544 -0.089522436 0.010355289
0.026933858 -0.088632017 0.0097455038
0.025030326 -0.087280236 0.0085360799
0.023361124 -0.086692035 0.0082448591
-0.082754448 -0.00070981134 0.0068486026
-0.083789729 0.001036671 0.0069409953
-0.085464396 0.0027824973 0.0071788812
-0.087534681 0.0044611669 0.0076938234
-0.089179188 0.0060295658 0.0082581127
-0.090256758 0.008146435 0.0078199822
0.034490317 -0.091321371 0.010502372
0.032463782 -0.089671597 0.010475899
0.030318303 -0.088380918 0.0099694664
0.028457012 -0.086832464 0.0089117195
0.02694753 -0.085683115 0.0083895857
-0.082960047 0.0030143268 0.0069345571
-0.084067747 0.004797854 0.0069420636
-0.085988387 0.0064496277 0.0069191894
-0.087763757 0.0078453021 0.0071950071
-0.08928825 0.0094356742 0.0070265057
0.035902608 -0.089585103 0.010592726
0.033902135 -0.088050388 0.0098970104
0.0318898 -0.086507387 0.0092010917
0.029966736 -0.085175507 0.0085029332
-0.083518498 0.0067023193 0.0070078168
-0.084564336 0.0082003847 0.0070102988
-0.08631584 0.0096262172 0.0069874199
-0.088359289 0.011289761 0.0069607003
0.039341435 -0.089498594 0.010709553
0.037477471 -0.087672204 0.010092386
0.035581585 -0.086115591 0.0094174026
0.033599034 -0.084849633 0.0087091317
0.031400971 -0.084264427 0.0085734474
-0.083906859 0.0096051916 0.0070672082
-0.085110806 0.011278172 0.0070687644
-0.086697862 0.013332318 0.0070669753
-0.087625124 0.015150696 0.0078320522
0.04082673 -0.08728224 0.010480704
0.038996093 -0.085686781 0.0096920505
0.037291091 -0.084330596 0.00876824
0.035635054 -0.083831273 0.0087254317
-0.085036442 0.015374869 0.0071732951
-0.086960524 0.016821608 0.0085035115
-0.088124275 0.018437216 0.0091483761
0.044383019 -0.086879648 0.010831743
0.042415518 -0.085360192 0.0099977283
0.040445607 -0.083855547 0.0089964634
0.038774256 -0.083153427 0.0088469945
-0.083735153 0.017137369 0.0072606187
-0.085642457 0.018846564 0.0079068635
-0.087313518 0.020411799 0.0090426467
0.046111394 -0.084996745 0.010046628
0.044121668 -0.083425514 0.0094564194
0.042196278 -0.082624979 0.0089742951
-0.082925461 0.019282477 0.0073410561
-0.084154412 0.020889172 0.0076070083
-0.085900806 0.02249475 0.0085729845
-0.087413698 0.023550581 0.0092994841
0.049510222 -0.084382594 0.010175262
0.047514103 -0.082788043 0.0097313831
0.045626324 -0.081433304 0.0091183819
-0.082465313 0.022860708 0.0074455878
-0.084329687 0.024351871 0.008206957
-0.085947342 0.025792077 0.0092374217
0.050928406 -0.082639061 0.010266001
0.048968587 -0.081090011 0.0094885817
0.047535237 -0.079938665 0.0092192553
-0.081354178 0.024793455 0.0075307712
-0.082766183 0.026163027 0.0079348339
-0.084606186 0.027728332 0.0089967838
-0.085592933 0.029042866 0.0094970427
0.054617915 -0.082261622 0.010398475
0.052592728 -0.080616392 0.010288497
0.050659876 -0.079180725 0.0094090421
-0.080543414 0.026267428 0.0075945463
-0.081226729 0.028040728 0.0076993285
-0.082884736 0.029643513 0.0084837265
-0.084606871 0.031021174 0.0093790377
0.056272492 -0.080227472 0.010504315
0.054305583 -0.078644596 0.0099221161
0.05270857 -0.0774986 0.0094526
-0.080158807 0.030319443 0.0077083325
-0.081344135 0.031772595 0.007788389
-0.083454855 0.033142511 0.0088030938
-0.084891744 0.033751789 0.0093041426
0.059725624 -0.080140628 0.010621612
0.057690643 -0.078483984 0.010595053
0.055785146 -0.076954529 0.0095687462
0.054380123 -0.076295763 0.0095382938
-0.080723606 0.033204287 0.0077613546
-0.082246721 0.035033368 0.0081565082
0.061380189 -0.078106493 0.010727483
0.059371859 -0.076472625 0.010513565
0.057468399 -0.075123742 0.0096704708
-0.078459285 0.037181094 0.0079359673
-0.08025147 0.037595142 0.0086371908
-0.081666075 0.038929194 0.0097742239
0.063034721 -0.076072395 0.010833322
0.061087281 -0.074483007 0.010224155
0.059691794 -0.073344722 0.0097889313
-0.077984616 0.037764668 0.0079663415
-0.078798547 0.039300073 0.008077547
-0.08049833 0.040689755 0.0088652559
-0.081954703 0.041961357 0.0091062095
0.066197172 -0.075748861 0.010946854
0.064313926 -0.074124247 0.010742546
0.062336925 -0.072686411 0.0099936472
-0.07769879 0.04121805 0.0080619212
-0.079005063 0.042475469 0.0080497051
-0.080406278 0.043616142 0.0080313841
0.067851752 -0.073714718 0.011052725
0.065901339 -0.072110832 0.010527206
0.064176865 -0.070898645 0.009999482
-0.076888002 0.042692073 0.0081256824
-0.077343643 0.044518031 0.0081559801
-0.078866206 0.046059184 0.0083255852
0.069506273 -0.07168062 0.011158564
0.067604266 -0.070097469 0.01038391
0.066190191 -0.068934754 0.010115513
-0.075883098 0.046611119 0.0083680591
-0.077523626 0.047996979 0.0095949965
-0.078672394 0.049383081 0.010234634
0.071053661 -0.070002027 0.010584761
0.069110312 -0.068490058 0.010223991
-0.074703425 0.048479766 0.0083427457
-0.07614594 0.049786095 0.0093948087
-0.077841811 0.051249336 0.010308832
0.072778679 -0.067993172 0.010358685
0.071015544 -0.066690072 0.010332379
-0.073180594 0.050829161 0.0084520616
-0.074524917 0.051796038 0.0090200724
-0.076516025 0.053487357 0.010250804
-0.07850749 0.055501867 0.010392603
0.074440099 -0.065950617 0.010465019
0.072980493 -0.064762399 0.010445951
-0.071254544 0.052898813 0.0085678697
-0.072742991 0.053817216 0.0091249533
-0.074943036 0.055520728 0.010111586
-0.077095188 0.057238135 0.010482957
0.075864159 -0.064199865 0.010556129
0.074368015 -0.063175879 0.010531733
-0.070095122 0.054622479 0.008649461
-0.071256295 0.055493876 0.0093831411
-0.073555484 0.057288755 0.010135186
-0.075682908 0.058974411 0.010573312
0.079277098 -0.063583151 0.010685268
0.077525578 -0.062157307 0.010662389
0.076357909 -0.061206728 0.010647162
-0.068525121 0.056254387 0.0087424982
-0.069721349 0.05766492 0.0091756191
-0.071978144 0.059398916 0.010056852
-0.07403522 0.061000086 0.010678732
0.080938518 -0.061540589 0.010791603
0.079186991 -0.060114745 0.010768724
0.078019321 -0.05916417 0.010753437
-0.068454504 0.05998005 0.0088376859
-0.070411392 0.061526973 0.0099453088
0.08223024 -0.059803408 0.01087796
0.0806247 -0.058496356 0.010856994
-0.067099757 0.061884191 0.0089303153
-0.068890497 0.063148044 0.010303288
-0.065675706 0.063634954 0.0090214247
-0.067287274 0.065171622 0.010217539
0.085630812 -0.055175327 0.01110666
0.084463127 -0.054224744 0.011091403
-0.06373328 0.065545723 0.0091337627
-0.06544736 0.067162514 0.010117803
-0.067482352 0.068819165 0.010091214
0.085649878 -0.052765761 0.011167346
-0.062188633 0.067683369 0.0092385737
-0.064029172 0.068906054 0.010208542
-0.066064142 0.070562698 0.010181953
-0.058702599 0.068628535 0.0093783671
-0.060577061 0.069303416 0.0094866594
-0.062423058 0.071054086 0.010482426
-0.064529344 0.072522357 0.010974864
-0.055308718 0.066835679 0.0094468789
-0.057515893 0.070087485 0.0094542969
-0.058800161 0.071188636 0.0096390573
-0.060867492 0.073011585 0.010816616
-0.055854481 0.072130047 0.009560572
-0.057228703 0.073194109 0.0097914571
-0.059451643 0.074752256 0.010907191
-0.054101948 0.073807396 0.0096608344
-0.055558909 0.075047433 0.010243672
-0.057782941 0.07675723 0.01106286
-0.052185901 0.075670265 0.0098545318
-0.053865921 0.076873757 0.010495731
-0.056081053 0.078709833 0.011318375
-0.050943907 0.077657998 0.010162338
-0.052539639 0.078872904 0.010840015
-0.049316317 0.079569265 0.010297596
-0.050885119 0.080907002 0.010945885
-0.045795895 0.080916949 0.010114957
-0.047524482 0.081355214 0.010401834
-0.049287271 0.082969718 0.011414479
-0.044344559 0.082402982 0.01020039
-0.045873664 0.083205707 0.010836634
-0.042969782 0.084137954 0.010575437
-0.044355366 0.085157558 0.011126566
-0.013433855 0.096444152 0.011581016
-0.015126235 0.097296469 0.011545842
-0.010240088 0.096592568 0.011691225
-0.011937011 0.097489014 0.011656991
-0.013688534 0.098914869 0.011634112
-0.0065352516 0.096971594 0.011824218
-0.0085059665 0.097694144 0.011776506
-0.010512952 0.099239774 0.011748101
-0.0028485861 0.097527117 0.011960977
-0.0047530504 0.098078072 0.011911212
-0.0068081152 0.099618807 0.011881051
-0.0090752579 0.10085817 0.011836371
0.00029060346 0.09820497 0.01208257
-0.0013653892 0.098704346 0.012039806
-0.0031032751 0.099997841 0.012014088
-0.0050228075 0.10097852 0.011974494
0.0019941689 0.098973744 0.012158549
7.2312185e-05 0.10032275 0.012128077
-0.0016064333 0.1010427 0.012090004
0.007700311 0.098963082 0.012348558
0.0061101317 0.099564679 0.012310534
0.0038065258 0.10041669 0.012254908
0.0016055228 0.10101461 0.012196432
0.010912248 0.098935008 0.012454941
0.0092335185 0.099654958 0.012416928
0.0074819801 0.10108081 0.012394049
0.010182854 0.10082211 0.012477661
-0.033511631 -0.07441172 0.0056534344
-0.034684129 -0.073457219 0.0056381347
-0.036974318 -0.072079815 0.0055960715
-0.052509952 -0.059432626 0.0053931251
-0.054067086 -0.057872795 0.0053800838
-0.055869654 -0.056015708 0.0053662518
-0.057895802 -0.054074101 0.0053470405
-0.059388809 -0.052615143 0.0053336173
-0.061468083 -0.050678946 0.0053125154
-0.062933721 -0.049485821 0.0052933758
-0.02339752 -0.078749262 0.0058826376
-0.025156282 -0.077317521 0.0058596563
-0.054652311 -0.054279495 0.0054500951
-0.056704167 -0.052609101 0.0054233056
-0.058462929 -0.051177356 0.0054003261
-0.060514793 -0.049506944 0.0053735068
-0.062566683 -0.047836587 0.0053467164
-0.064192541 -0.046391197 0.005328509
-0.065820098 -0.044408802 0.0053236401
-0.016370816 -0.081791006 0.0060411626
-0.018288041 -0.080682449 0.0060048569
-0.020099225 -0.079486281 0.0059742723
-0.021959746 -0.077554263 0.0057101613
-0.024063293 -0.075912386 0.0054307096
-0.060958486 -0.04605668 0.0053445948
-0.062895484 -0.044646833 0.0054152319
-0.064947344 -0.042976435 0.0053884136
-0.066999204 -0.041306026 0.0053616241
-0.068538032 -0.039775051 0.0053484496
-0.070012636 -0.038122322 0.0053404514
-0.07121256 -0.036902014 0.0053308532
-0.0071634874 -0.085146867 0.0062645907
-0.0086439056 -0.084331326 0.0062355567
-0.010333085 -0.083053634 0.0062110517
-0.012843204 -0.081775472 0.0061591836
-0.014926923 -0.080310076 0.0060428102
-0.016742036 -0.078921877 0.0056832619
-0.018562563 -0.077530868 0.0053235954
-0.02042844 -0.075592496 0.0050594769
-0.065199122 -0.039407119 0.0051610144
-0.067001455 -0.037823722 0.0052943164
-0.068848424 -0.03639153 0.0054224031
-0.070794038 -0.034710288 0.0053994097
-0.072493933 -0.032658506 0.005393845
-0.073702849 -0.030978655 0.0053953873
-0.003068015 -0.085802324 0.0063848225
-0.0053674486 -0.084572427 0.006338791
-0.0073826914 -0.083020367 0.0063102674
-0.009186862 -0.081636384 0.0059509706
-0.011266396 -0.079986513 0.005755919
-0.013400304 -0.078379825 0.0052243788
-0.015166304 -0.076942183 0.0052013127
-0.016932299 -0.075504549 0.0051782466
-0.069295585 -0.032660834 0.0053336388
-0.071283922 -0.030999783 0.0054755481
-0.073042639 -0.029567998 0.0054525696
-0.07483796 -0.027781853 0.0054372074
-0.076669738 -0.02564121 0.0054294486
0.0015588963 -0.08640343 0.0065241391
-0.00012677512 -0.0856805 0.006485939
-0.0018490019 -0.084603161 0.0064553712
-0.0039589508 -0.083007269 0.0059243375
-0.006077867 -0.081406802 0.0053931335
-0.0078438343 -0.079969116 0.0053700684
-0.0099041704 -0.078291886 0.0053431774
-0.01196447 -0.076614588 0.0053162435
-0.013969782 -0.07547117 0.0052778544
-0.015735781 -0.074033536 0.0052547734
-0.071656138 -0.027801545 0.0054315869
-0.073664583 -0.026139626 0.0055172443
-0.075716443 -0.024469214 0.0054904548
-0.077342361 -0.023023915 0.0054722307
-0.078171067 -0.021496998 0.0054826485
0.0053338534 -0.086554445 0.0066462634
0.0032695143 -0.085631482 0.0066004293
0.0014429364 -0.084047899 0.0063969782
-0.0002565656 -0.082663409 0.0058061564
-0.0023423817 -0.081024587 0.0055272421
-0.0044027199 -0.079347357 0.0055003362
-0.0063713347 -0.078559786 0.005454272
-0.0080639375 -0.077833869 0.0054158997
-0.074113697 -0.022679748 0.0054883864
-0.076045275 -0.02127951 0.0055589695
-0.077684857 -0.019701239 0.0055436054
0.0092775626 -0.086258389 0.0067851571
0.0071234447 -0.085443385 0.0067336271
0.0050350567 -0.083943583 0.0063885879
0.0031310692 -0.0822303 0.0057797944
0.0013930671 -0.080642432 0.0056613199
-0.00062598416 -0.079365529 0.0056258095
-0.0026175187 -0.078355536 0.0055845277
-0.076428875 -0.017558126 0.005638889
-0.078279108 -0.015759639 0.0056220088
-0.079497106 -0.01384279 0.0056291511
0.012260962 -0.086024828 0.0068904497
0.010538743 -0.084947482 0.0068598827
0.0087368926 -0.08361721 0.0061656879
0.0066552018 -0.08199212 0.0058031855
0.0046086446 -0.080448307 0.0057733869
0.0029022596 -0.079588957 0.0057378625
-0.076771259 -0.013833527 0.0054200208
-0.078571193 -0.012404956 0.0056958599
-0.080224507 -0.010693812 0.0056833532
0.016035926 -0.086175822 0.007012574
0.014063897 -0.084657036 0.006770201
0.012165342 -0.083021633 0.0061280662
0.010378889 -0.081733778 0.0059337942
0.008132291 -0.08062727 0.005886429
0.0061407564 -0.079617277 0.0058451472
-0.07919313 -0.0089765852 0.0057605347
-0.081112139 -0.0072926236 0.0057385014
-0.081940852 -0.005765697 0.0057489043
0.021423468 -0.086340964 0.007188119
0.019583832 -0.085687503 0.0071430737
0.017538963 -0.084311783 0.0065753693
0.01559092 -0.08274208 0.0062644202
0.013868461 -0.081344061 0.0060598413
0.012175859 -0.080618136 0.0060214689
-0.077550679 -0.0069154762 0.0058040963
-0.079576716 -0.0052552065 0.0058404701
-0.081217192 -0.003786939 0.0058223484
-0.082147315 -0.0020262159 0.0058351997
0.024575653 -0.085660294 0.0073101968
0.022926491 -0.085291803 0.0072643934
0.021158643 -0.083962448 0.0065713432
0.019093938 -0.082337841 0.006209353
0.017106954 -0.081372365 0.006167111
-0.077844672 -0.0034496621 0.0053063128
-0.079586864 -0.0017728688 0.0057267118
-0.081425942 -0.00034070012 0.005901265
-0.082476102 0.0011635341 0.0059037153
0.026015799 -0.084745467 0.0073810164
0.024595091 -0.083328575 0.0067851199
0.022817619 -0.0820795 0.0063399766
0.020897472 -0.081523977 0.0062897354
-0.078099519 0.00021821809 0.0050878311
-0.079884388 0.0015066257 0.0058986051
-0.081924602 0.0030758518 0.0059697581
-0.08303684 0.0048668226 0.0059772888
0.030046254 -0.08402615 0.0075333416
0.028079942 -0.083190158 0.0072383722
0.026284277 -0.08146736 0.0064708069
0.024614591 -0.080963865 0.0064276522
-0.076451063 0.0022894943 0.0051318677
-0.078622513 0.0037410711 0.0053685578
-0.080406152 0.0051519345 0.0060095564
-0.08231318 0.0068455804 0.006050718
-0.083243303 0.0086062988 0.0060635842
0.03348241 -0.083495535 0.0076611452
0.031800035 -0.082788847 0.0075114435
0.029764704 -0.081233531 0.0066761058
0.027816385 -0.080636322 0.0065425821
-0.077075534 0.0057320055 0.0051967977
-0.078964107 0.0071846643 0.0052701095
-0.08058437 0.0087804357 0.0059746103
-0.082521975 0.010291777 0.0061296467
-0.084175229 0.012002956 0.0061171418
0.036671147 -0.083169267 0.0077756206
0.034985427 -0.082446374 0.0077374345
0.033254456 -0.081125423 0.0069341697
0.031533498 -0.080076203 0.0066804979
-0.077405706 0.0089348769 0.0052655973
-0.079311997 0.010429637 0.0055122226
-0.080969863 0.012036729 0.0061247824
-0.083143868 0.013720191 0.0061943242
0.04088619 -0.082379892 0.007935835
0.038680553 -0.081790328 0.0077999877
0.03669155 -0.080499969 0.0070921788
0.034882624 -0.079433881 0.006808213
0.033042703 -0.079022743 0.0067570712
-0.075730555 0.010994322 0.005372786
-0.077496551 0.012431954 0.0053497208
-0.079315804 0.013969536 0.0058903284
-0.081475601 0.015771167 0.0063010482
-0.082580574 0.017807039 0.0063149324
0.042260654 -0.081317514 0.0078830402
0.040297311 -0.080103152 0.0072450545
0.03841576 -0.078832641 0.0069409925
-0.075821407 0.014491401 0.0054568788
-0.077846326 0.016147295 0.005514021
-0.079807334 0.017822146 0.0064077871
-0.081726357 0.019506115 0.0063857529
-0.082555071 0.021033037 0.0063961707
0.045266509 -0.080588661 0.0081265457
0.043594379 -0.079744905 0.0076747863
0.041617602 -0.078505047 0.0070559224
-0.074741334 0.016220219 0.005535949
-0.0764459 0.017933859 0.0055218395
-0.078552425 0.019692196 0.0060792034
-0.080429271 0.02125052 0.0064724917
-0.08162915 0.022470867 0.0064628636
0.046751272 -0.079362273 0.0082066217
0.045192003 -0.077751204 0.0073941015
0.043126788 -0.077451587 0.0071324948
-0.07505808 0.019963905 0.0056187036
-0.077007368 0.021683486 0.0057395129
-0.078661025 0.023125211 0.0063279383
-0.080522463 0.024387652 0.0065475274
0.050600141 -0.077625439 0.0083782319
0.048712667 -0.077549905 0.0083171856
0.046978716 -0.075843483 0.0073780445
-0.074217893 0.022477368 0.0057093007
-0.075155951 0.023729982 0.0057092663
-0.077293068 0.025109299 0.0059803119
-0.078976758 0.026508475 0.0065749399
-0.080051355 0.02800462 0.0066533638
0.05188328 -0.076527134 0.0084484145
0.050392725 -0.07551188 0.008312773
0.048721675 -0.074181959 0.0074005537
-0.074431598 0.025422433 0.0057755569
-0.075486064 0.026932891 0.0057780668
-0.077336192 0.028455917 0.0062547205
-0.079249866 0.030128075 0.0067330161
0.053734545 -0.075209551 0.0085429708
0.051872846 -0.073803067 0.0079598781
0.050451811 -0.072656371 0.0074962582
-0.074286804 0.028750954 0.005863362
-0.076041117 0.030322757 0.0060108332
-0.078043446 0.031970661 0.0068191458
-0.079875365 0.033740293 0.0068021473
-0.081450798 0.035328962 0.0067892093
0.057473298 -0.073967502 0.0086985901
0.055554915 -0.073380381 0.0084615778
0.053586859 -0.071918793 0.007619204
0.051942676 -0.071424954 0.0075766398
-0.073175557 0.030675633 0.0059483312
-0.074435413 0.032434791 0.0059502004
-0.076477773 0.034104005 0.0066742962
-0.078427032 0.03569204 0.0068990802
-0.08038757 0.036476351 0.0068532387
0.058958057 -0.072741114 0.0087786512
0.057299469 -0.071386211 0.0080064852
0.055347122 -0.070447288 0.0077145249
-0.072984755 0.034579135 0.0060519902
-0.074977741 0.036297675 0.0063619688
-0.076758742 0.037742991 0.007005834
-0.077692926 0.038990527 0.0070057493
0.060424101 -0.071007892 0.0086205155
0.058489352 -0.069541417 0.007841914
-0.072067685 0.036668897 0.0061346339
-0.073509581 0.037939087 0.0062183002
-0.075145908 0.039444327 0.0069200033
-0.076851949 0.040880129 0.0070808697
0.063782133 -0.070044935 0.0090067247
0.06212306 -0.068971939 0.0085402401
0.060384531 -0.06774848 0.0079497807
-0.071250215 0.03815512 0.0061989101
-0.071709633 0.039996147 0.0062295077
-0.073567279 0.041492999 0.0067052469
-0.075419299 0.042983744 0.0071810596
-0.076353461 0.044231262 0.0071810028
0.065483324 -0.068312891 0.0091065885
0.063844882 -0.066944294 0.0083354283
0.062175233 -0.066062517 0.0080514802
-0.07027106 0.042108428 0.0063300962
-0.071925931 0.043493334 0.0064095091
-0.07360325 0.045016404 0.0070193084
-0.074950926 0.046255078 0.0072782002
0.068855554 -0.067162022 0.0092477119
0.06720639 -0.066793539 0.0092019234
0.06545078 -0.065403722 0.0081771575
-0.069665946 0.043711592 0.0063901907
-0.070364632 0.045258444 0.0064054662
-0.072291419 0.046807889 0.0067134313
-0.073844232 0.048171852 0.007362863
0.070307404 -0.065616712 0.0093346471
0.068911903 -0.064886466 0.0090333093
0.067346521 -0.063915119 0.0082774526
-0.069223143 0.047263276 0.0064934613
-0.070810989 0.048700672 0.0067265537
-0.072370037 0.050209668 0.0073857876
0.072008543 -0.063884713 0.0094345259
0.070482664 -0.062794462 0.0089103663
0.068960242 -0.062131688 0.0083757006
-0.06559775 0.048713062 0.0066504776
-0.067241929 0.049206901 0.0066079879
-0.069053352 0.05061093 0.0069828928
-0.070729584 0.052193567 0.0075669317
0.073632218 -0.062145241 0.0095320093
0.072102465 -0.060973383 0.0088429488
0.070991121 -0.060035881 0.0084956242
-0.064106889 0.049944483 0.006730889
-0.06568709 0.051181037 0.0072094472
-0.067554578 0.052652709 0.0076842653
-0.06931331 0.054084498 0.0076612858
0.075161561 -0.060607336 0.0096213399
0.073581837 -0.059222672 0.008713508
-0.062671058 0.051709719 0.0068227556
-0.064192995 0.0528754 0.007468286
-0.066124588 0.054410707 0.0077757454
-0.067810081 0.055782799 0.0077537149
0.076829873 -0.058556315 0.0097280648
0.07527943 -0.057169653 0.0087100947
-0.06176883 0.053420372 0.0068954425
-0.062739156 0.054897342 0.0071308715
-0.064351298 0.056463223 0.0075010862
-0.066401437 0.058138773 0.0078005437
-0.067497164 0.059911244 0.0078670289
0.08073353 -0.057351105 0.0098882718
0.078791276 -0.056743957 0.0098386277
0.076954573 -0.055110212 0.0088172546
-0.061503939 0.05695381 0.0069923149
-0.062558413 0.05846427 0.0069948239
-0.064691849 0.060117979 0.0075653661
-0.066305563 0.061376203 0.0079432642
0.083680071 -0.057801798 0.0099753197
0.082273059 -0.056656394 0.0099569419
0.080221198 -0.054985989 0.0099301236
0.078390412 -0.053344984 0.0089091184
-0.061683692 0.060441833 0.0070732394
-0.063331649 0.061967615 0.0074566705
-0.06487561 0.063134223 0.0080347443
0.084930316 -0.056384508 0.010052303
0.083556451 -0.054779064 0.010046495
0.081889465 -0.052935008 0.010036848
0.080065563 -0.051285543 0.0090163071
-0.060753997 0.061885539 0.0071402146
-0.061659247 0.064023681 0.0075636562
-0.063922301 0.064306214 0.0080957357
0.085023396 -0.052077115 0.010162741
0.083557762 -0.050883986 0.010143586
0.081740662 -0.049226146 0.009123465
-0.059963848 0.066048853 0.0077373758
-0.061777376 0.066943213 0.0082329782
0.087039582 -0.050796371 0.010261901
0.0849877 -0.049126018 0.010235081
0.083176509 -0.047460917 0.0092153307
-0.05664641 0.066662274 0.00839708
-0.058606893 0.067682676 0.0083571225
0.088707857 -0.048745401 0.010368625
0.086655997 -0.047074996 0.01034182
0.084612332 -0.045695685 0.0093071954
0.083435014 -0.044737242 0.0092917942
-0.055314146 0.068499818 0.0084872954
-0.05668208 0.069613427 0.0084694205
0.088324264 -0.045024015 0.010448544
0.086223267 -0.043638658 0.0096623814
0.085136019 -0.042405434 0.0094066318
-0.053459298 0.070338167 0.0075941095
-0.054801252 0.071546011 0.008330089
0.089754187 -0.043266047 0.010540038
0.087875083 -0.041582417 0.0098520825
0.086490974 -0.040378761 0.0095023019
-0.051663559 0.072136447 0.0078807697
-0.053449687 0.073097974 0.008538927
0.091422491 -0.041215025 0.010646778
0.089430839 -0.039660323 0.010346136
0.087632477 -0.038373936 0.0095903436
-0.048697866 0.073098674 0.0078216447
-0.050224185 0.074026175 0.0082228146
-0.051589575 0.074915797 0.008771373
0.093090758 -0.039164051 0.010753517
0.090993181 -0.037548549 0.010323483
0.089307614 -0.036314487 0.0096975313
-0.047262032 0.074863903 0.0079135103
-0.048417855 0.075903535 0.0083298329
-0.04980024 0.077355243 0.0088918321
0.092561312 -0.035720725 0.010488037
0.090982765 -0.034255046 0.0098046893
-0.045255695 0.076849312 0.0080298958
-0.0469108 0.077865727 0.0085004587
-0.048496854 0.078777939 0.0089707198
0.093961529 -0.033966374 0.010689651
0.09234871 -0.03233517 0.0098980833
-0.043856729 0.078448921 0.0081164027
-0.045454245 0.079584137 0.0086752456
-0.047039494 0.080270112 0.0090564983
0.095581822 -0.03204437 0.010922986
0.093560107 -0.030484995 0.0099845957
0.092567034 -0.028698578 0.0099959411
-0.040470634 0.079604551 0.0082581108
-0.042160146 0.080213934 0.0083989492
-0.043906111 0.081398211 0.009035117
0.095235251 -0.028425554 0.01009177
0.093789436 -0.026955143 0.010080162
-0.038726732 0.080996715 0.0083509814
-0.040531591 0.082072712 0.0087179448
-0.042056512 0.083657928 0.0093070837
0.096910365 -0.026366159 0.010198942
0.095144399 -0.024928471 0.010175847
-0.035593688 0.081991546 0.0084802145
-0.037010312 0.082655758 0.0084495489
-0.038896214 0.083975486 0.0090867579
-0.040862169 0.085468575 0.0093920445
-0.042273004 0.086130075 0.009361471
0.098346204 -0.024600931 0.010290807
0.09641932 -0.022909997 0.010268664
-0.034065951 0.083388582 0.0085659847
-0.035574466 0.084420986 0.0085414145
-0.037458029 0.085683882 0.0090559795
-0.039359141 0.086517736 0.0094682891
0.10002135 -0.022541489 0.010397981
0.097961038 -0.020864202 0.010371077
0.096747026 -0.019549903 0.010363306
-0.033145577 0.084399804 0.0086218603
-0.034396291 0.086069971 0.0086217793
-0.035794541 0.086556278 0.0085872468
0.099808253 -0.018955681 0.010753172
0.098003604 -0.017353466 0.010459946
0.10107048 -0.017330715 0.011108694
0.099305995 -0.015601944 0.010547018
0.098367989 -0.01434929 0.010546925
0.10226852 -0.015568564 0.010646642
0.10050255 -0.014130875 0.010623562
0.09932524 -0.013172439 0.010608175
0.10203183 -0.0080405455 0.010826343
0.10032725 -0.0063269013 0.010812172
0.10320998 -0.0063916245 0.010906707
0.10140733 -0.0045980876 0.010891273
0.10023001 -0.0036396454 0.01087587
0.10308248 -0.0025386452 0.010998431
0.10203441 -0.00021837004 0.011021291
0.10056275 0.00097967277 0.011002065
-0.01268138 0.092517242 0.0095065469
-0.014944531 0.093612574 0.0095251258
-0.017044006 0.095234014 0.0097862175
0.10416894 6.3262373e-10 0.011097911
0.10299161 0.00095844298 0.011082568
0.10122563 0.0023960734 0.011059488
0.09990859 0.0036639159 0.011047144
-0.0094795413 0.092844836 0.0096214777
-0.01131221 0.093891628 0.010041378
-0.013353425 0.095164932 0.010450885
-0.015581924 0.096382067 0.010506975
0.10266146 0.0041613043 0.011151354
0.1008256 0.0057536438 0.011129818
-0.006277733 0.093172379 0.0097364234
-0.0079786656 0.094425529 0.010336469
-0.009958786 0.095667973 0.01067672
-0.011904719 0.096310563 0.01062782
0.10227627 0.0078979833 0.011231638
0.10101641 0.0096571371 0.011233416
-0.00031603978 0.092883229 0.0099280067
-0.0024533535 0.093563646 0.0098737301
-0.0045068907 0.094585545 0.010331112
-0.0062239328 0.096142903 0.010813088
-0.0082028201 0.096868403 0.010765164
0.1016518 0.011340491 0.011296553
0.0011931973 0.093936749 0.010004595
-0.0007779547 0.094967097 0.010464971
-0.0027787297 0.096348859 0.010933121
-0.0044643972 0.097071797 0.010894907
0.0043949801 0.094264299 0.010119525
0.0026491946 0.09562882 0.010524253
0.00067610864 0.096871771 0.010984332
-0.0010923649 0.097703271 0.011023105
0.099649116 0.020306146 0.011453158
0.0078452863 0.094797105 0.010247845
0.0057585808 0.095977135 0.010515636
0.0040889205 0.097432941 0.011089043
0.0023896494 0.098310277 0.011154328
0.099102236 0.023576725 0.011516432
0.098325923 0.025295475 0.011533349
0.013852871 0.094063148 0.010429895
0.011888837 0.094806246 0.010382944
0.0096180383 0.095908999 0.010584912
0.0074945833 0.097522937 0.01116196
0.0053365165 0.098898232 0.011267255
0.016797025 0.094274439 0.010533338
0.015086339 0.095155142 0.010598346
0.013204719 0.096607462 0.011072208
0.011265578 0.097932242 0.011440893
0.0090693021 0.098635495 0.011385172
0.0205875 0.094122775 0.010655963
0.018575018 0.095306307 0.01070179
0.016611235 0.096955977 0.011194483
0.014704308 0.098674752 0.011574076
0.012959274 0.099973612 0.011548237
0.011003288 0.10071364 0.011501453
0.027763223 0.092519335 0.010855301
0.02615997 0.093125999 0.010816975
0.024186727 0.09425728 0.010779365
0.022238858 0.09552405 0.011031914
0.020200083 0.096817262 0.011326115
0.01822276 0.098644026 0.011690625
0.031875551 0.091861181 0.010976038
0.029566675 0.093096174 0.01092985
0.027540173 0.09452562 0.011120277
0.025479363 0.095844433 0.01169604
0.023426719 0.097418234 0.011833639
0.040642176 0.08790312 0.011169747
0.039225537 0.088567354 0.011139066
0.037165239 0.090244628 0.011112177
0.034851845 0.091761135 0.011072814
0.033074159 0.093220919 0.011149992
0.031157095 0.094715752 0.011557019
0.02919874 0.096128449 0.011993957
0.044432644 0.087751478 0.011292401
0.042427339 0.088894896 0.011254041
0.040615927 0.090387128 0.011384771
0.038494311 0.091998897 0.011200228
0.036540747 0.093687095 0.011177137
0.063418306 0.076207809 0.01163786
0.062240992 0.077166259 0.011622473
0.060180653 0.078843489 0.011595569
0.058120355 0.080520764 0.011568648
0.056115042 0.081664197 0.011530288
0.068707958 0.074591212 0.011773967
0.066782825 0.075704329 0.011737543
0.06496416 0.07690537 0.011706815
0.063198201 0.078343056 0.01168375
0.061137866 0.080020286 0.011656846
-0.0090837954 -0.077241845 0.0043957932
-0.010857028 -0.07579831 0.0043726275
-0.0060907397 -0.077387027 0.0044919932
-0.0078271292 -0.076300807 0.0044611664
-0.00085307274 -0.078295566 0.0046440111
-0.0028527761 -0.077281445 0.0046025887
0.0049204272 -0.079149283 0.0048152711
0.0030360934 -0.078379154 0.0047716284
0.010462806 -0.080387801 0.0049692355
0.0084631406 -0.079373613 0.004927814
0.0064357887 -0.07809151 0.0048921723
0.013714592 -0.080416195 0.0050769625
0.012001234 -0.079553306 0.0050413171
0.0099462764 -0.078003183 0.0050114579
0.0078775315 -0.076319024 0.0049844086
0.016966378 -0.080444597 0.0051846905
0.015229998 -0.079358384 0.0051538656
0.013430107 -0.077712499 0.0050347364
0.011511014 -0.075969629 0.0049141143
0.022952521 -0.080734923 0.0053770747
0.020724235 -0.080129579 0.0053178985
0.018685225 -0.078734055 0.0052846698
0.016911993 -0.077290528 0.0052615022
0.026167467 -0.080406003 0.0054924767
0.024490923 -0.079900481 0.0054491712
0.022435997 -0.078350306 0.005419313
0.02036722 -0.076666199 0.0053922618
0.027705861 -0.079571567 0.0055645723
0.025946446 -0.078262024 0.0055385372
0.023877708 -0.076577865 0.0055115474
