# .PCD v0.7 - Point Cloud Data file format
VERSION 0.7
FIELDS x y z
SIZE 4 4 4
TYPE F F F
COUNT 1 1 1
WIDTH 1273
HEIGHT 1
VIEWPOINT 0 0 0 1 0 0 0
POINTS 1273
DATA ascii
0.045195673 0.081185266 0.0096850256
0.047731973 0.082356878 0.01039362
-0.095189437 -0.0048885029 0.010798409
0.044201251 0.077955805 0.009603519
0.046355508 0.078695431 0.0096039344
0.048723318 0.080150343 0.0097821224
0.051066302 0.081276886 0.0098213265
-0.094514452 -0.0060451603 0.010846945
-0.092585191 -0.0049199839 0.010831132
0.048027195 0.077603288 0.009662265
0.049904965 0.078284971 0.009661329
0.052110728 0.079468101 0.0096468981
0.054316528 0.080651179 0.0096324077
-0.095013343 -0.0091783917 0.010950061
-0.093389504 -0.0079729483 0.010927817
-0.092071079 -0.0066872458 0.010898963
0.051242288 0.077411287 0.0097079994
0.053275917 0.077692941 0.0097229164
0.05555084 0.078890488 0.0097088013
0.057319254 0.079405084 0.0097123142
-0.094354682 -0.011636515 0.011043767
-0.092592567 -0.010402119 0.011022124
0.054800142 0.076041073 0.0097989747
0.056900777 0.076577216 0.0098058116
0.058749635 0.077397041 0.0097996769
-0.093004756 -0.013949796 0.011140807
-0.091461301 -0.013049693 0.011128151
0.05862378 0.074688114 0.009892568
0.060180031 0.075389013 0.0098870704
0.061562594 0.075678572 0.0098937098
-0.093969919 -0.017613346 0.011256756
-0.0918075 -0.016223025 0.011234557
0.060147397 0.072786167 0.0099773519
0.061529946 0.073075719 0.0099840807
0.063419022 0.074048236 0.0099731218
-0.094163388 -0.020826835 0.011366393
-0.093069963 -0.019155579 0.011321431
-0.091526538 -0.018255426 0.011308804
0.062654905 0.071147941 0.010064892
0.064584218 0.072273083 0.01004914
0.066127636 0.073173225 0.010036484
0.063940741 0.06983076 0.01012644
0.065709129 0.070345342 0.010129982
0.067638449 0.071470484 0.0101142
0.067215331 0.068270743 0.010220596
0.069374263 0.069382183 0.010208054
0.068875328 0.066249005 0.010311199
0.070724182 0.067068897 0.010305095
0.072717607 0.067197882 0.010324776
0.070305713 0.06424097 0.010398533
0.072074123 0.064755559 0.010402105
0.07423307 0.065867014 0.010389593
0.073199086 0.062827781 0.010482977
0.075514212 0.064177997 0.010464008
0.074480265 0.061138719 0.010557393
0.076639183 0.062250227 0.01054488
0.076047048 0.059010901 0.010650545
0.077989131 0.059936889 0.010641892
0.080304287 0.06128706 0.010622952
0.077795677 0.056723408 0.010751528
0.079339094 0.057623558 0.010738932
0.081654221 0.058973782 0.010719962
0.079145625 0.05441007 0.010848539
0.080689035 0.055310216 0.010835942
0.083004169 0.05666044 0.010817003
0.081814013 0.053382445 0.010916784
0.084129125 0.054732654 0.010897845
0.083153449 0.052268807 0.01097185
0.085029103 0.05319044 0.010962519
-0.048356671 0.069236055 0.0077828323
-0.04680784 0.070139289 0.0077701383
-0.044484649 0.071494214 0.0077511417
-0.042161457 0.072849132 0.0077321148
-0.040225461 0.073978238 0.0077162692
-0.038289465 0.075107343 0.0077004237
-0.035966232 0.076462224 0.0076813977
-0.064038828 0.056978617 0.008019614
-0.0624093 0.058188234 0.007997239
-0.060779776 0.059397846 0.007974864
-0.058829911 0.060757287 0.0079511702
-0.05674636 0.062268775 0.0079237809
-0.054423165 0.063623697 0.007904754
-0.052099966 0.064978622 0.0078857578
-0.050163943 0.066107675 0.0078699123
-0.048227943 0.067236781 0.0078540668
-0.045914851 0.068650454 0.0076104882
-0.043594472 0.070036069 0.0074791946
-0.04141961 0.071409881 0.0075410921
-0.039434627 0.072341651 0.0073540634
-0.037392091 0.07365334 0.0074284454
-0.035066206 0.075009838 0.0074093998
-0.032740485 0.076333888 0.0075026988
-0.030416749 0.077624492 0.0077082757
-0.028467888 0.078553662 0.0076995627
-0.026318954 0.07949575 0.0076928255
-0.02376999 0.080463775 0.007690039
-0.022221193 0.081367061 0.0076773744
-0.071202569 0.049689189 0.008186711
-0.069653772 0.050592478 0.0081740161
-0.067943543 0.052108474 0.00814196
-0.066080056 0.05358417 0.0081131393
-0.063921966 0.055003576 0.0079787001
-0.061620679 0.056407981 0.0077352962
-0.059714466 0.057614252 0.0073828753
-0.057773992 0.058745984 0.0073669576
-0.055473026 0.060183652 0.0070112604
-0.053141758 0.061543275 0.0069921762
-0.050810497 0.062902898 0.006973092
-0.048867747 0.064035878 0.0069571841
-0.046925027 0.065168895 0.0069413055
-0.044593759 0.066528521 0.0069222213
-0.042489052 0.068276383 0.0068868548
-0.040546332 0.0694094 0.0068709459
-0.038603611 0.070542432 0.006855038
-0.036272347 0.071902052 0.0068359533
-0.033941083 0.073261686 0.0068168994
-0.031342771 0.074386783 0.0068092104
-0.029440515 0.075366043 0.0067981891
-0.027499666 0.076466106 0.0068945866
-0.025173867 0.077758662 0.0071001383
-0.022855815 0.079015993 0.0074180262
-0.0205437 0.080271125 0.0077359439
-0.018607706 0.081400223 0.0077200984
-0.016653297 0.082243681 0.0077144252
-0.014232445 0.083329625 0.0077059753
-0.012348142 0.0840137 0.0077050128
-0.074945867 0.045431763 0.0082896361
-0.073422819 0.046734907 0.0082627069
-0.071111038 0.048003074 0.0081036408
-0.068792708 0.049110115 0.0079025878
-0.066874415 0.050274383 0.0077185268
-0.064966872 0.051463045 0.0074223252
-0.062661663 0.052868951 0.0071789101
-0.060570866 0.054385673 0.0071514249
-0.058614202 0.055749778 0.0071276654
-0.056898035 0.057271037 0.0070954747
-0.054955315 0.058404062 0.0070795664
-0.026591549 0.074946076 0.0068474109
-0.023923649 0.076085798 0.0068401
-0.021494366 0.077175461 0.0068316297
-0.019533191 0.078021877 0.0068259286
-0.017590472 0.079154901 0.0068100202
-0.015277954 0.080411412 0.0071278741
-0.012956995 0.081734702 0.0072211144
-0.010899866 0.083118826 0.0076108454
-0.0087346165 0.084046818 0.0077477372
-0.07746321 0.040852182 0.0084186802
-0.076323062 0.041862845 0.0083972989
-0.074663728 0.043340489 0.0082658706
-0.07234887 0.04450579 0.0077697099
-0.070061065 0.04576081 0.0075187208
-0.067519002 0.046913825 0.0073275063
-0.065802842 0.048435081 0.0072953156
-0.064167663 0.049648918 0.0072728684
-0.062532499 0.050862752 0.0072504217
-0.016684223 0.07760191 0.0068751504
-0.014352957 0.078961536 0.006856096
-0.011795142 0.079932936 0.0068532941
-0.0093454076 0.081170745 0.0070218062
-0.0073270695 0.082487091 0.0075462675
-0.0054954477 0.083654225 0.0078007448
-0.0034272585 0.084289975 0.0078036883
-0.078818969 0.036950067 0.0085382406
-0.077181287 0.038812704 0.0084932083
-0.075423174 0.040009577 0.0083060525
-0.073610336 0.041085117 0.0077068517
-0.071249485 0.042240404 0.0074450765
-0.06972114 0.043548051 0.0074180719
-0.007661961 0.079394631 0.0069222432
-0.0059548463 0.080478109 0.0072387243
-0.0042278338 0.08141315 0.007608348
-0.002217669 0.08266183 0.0078751501
6.5177825e-05 0.083863564 0.0078609781
0.0022134895 0.084554724 0.0078629721
-0.081723519 0.032144662 0.0086704651
-0.080386616 0.033665176 0.0086336825
-0.078303069 0.035176668 0.0086062932
-0.076046966 0.03659974 0.0081393421
-0.074189931 0.037819531 0.007563462
-0.072657272 0.039060298 0.0075388257
-0.071146153 0.040635437 0.0075022858
-0.0050935531 0.079157971 0.0069616684
-0.0032229186 0.079783097 0.007162712
-0.0010347732 0.080880873 0.007451219
0.0012924578 0.082238153 0.0074322084
0.0035985373 0.083542429 0.0075815031
0.0052678492 0.084953159 0.0078861825
-0.083100721 0.028575754 0.0087781278
-0.081441581 0.030105187 0.0087449634
-0.079343803 0.031560767 0.0082749603
-0.077086762 0.032981548 0.0078080874
-0.075013787 0.034514196 0.0076686637
-0.073672257 0.036039986 0.0076317675
-0.083746426 0.026124882 0.008855694
-0.081861869 0.026972553 0.0084201973
-0.080225922 0.02817123 0.0079694092
-0.078503773 0.029683631 0.0077946656
-0.07697542 0.030991279 0.0077676307
0.013236525 0.082859136 0.0080559244
0.014785321 0.083762422 0.0080432594
0.016998775 0.08494965 0.0080287419
-0.08510644 0.022289386 0.0089728869
-0.083228357 0.024030533 0.0088238046
-0.081012368 0.025186017 0.008063904
-0.079501539 0.026395829 0.0078971423
0.014365262 0.080771074 0.0076420712
0.015970144 0.081931114 0.0077879
0.018276202 0.08325249 0.0078810174
0.020453002 0.084129274 0.0080992868
-0.087598078 0.017309986 0.0091161653
-0.086092174 0.01887968 0.0090797367
-0.084197275 0.020352807 0.0089402478
-0.081968933 0.021765593 0.0083621098
-0.080253206 0.023043299 0.008004874
0.01504398 0.079454176 0.0071958806
0.01729425 0.080506384 0.0071865404
0.019369649 0.081144318 0.0071894927
0.021498792 0.082197241 0.007542524
0.023775529 0.082989059 0.0080125974
0.025464427 0.0832491 0.0081908237
-0.08895383 0.013407865 0.0092357257
-0.087316111 0.015270465 0.0091906944
-0.085186534 0.016684325 0.0089449193
-0.082979433 0.018101055 0.0082552079
-0.081202358 0.019939916 0.0081014978
0.022792632 0.080157183 0.0072654733
0.024993876 0.081072137 0.0073714769
0.027164616 0.082187489 0.008137254
0.029610189 0.082814805 0.0082562882
-0.092309922 0.009376267 0.0093354704
-0.089986727 0.010731185 0.0093164733
-0.087847278 0.01185636 0.0091602532
-0.086143777 0.013169697 0.0089028897
-0.084125191 0.014462569 0.0082569132
-0.082460292 0.015997292 0.0082236426
0.026591232 0.079597257 0.0073311115
0.028683076 0.080102682 0.0074500758
0.030892214 0.081289075 0.0079914853
0.033102635 0.082388401 0.0083135786
0.035143327 0.082671084 0.0083284797
-0.091181025 0.0074417405 0.0094166128
-0.088857822 0.0087966612 0.0093976157
-0.086476065 0.0098196575 0.0085013732
-0.08472313 0.011069682 0.0083679138
-0.083842278 0.012416021 0.0083316928
0.030001339 0.078810684 0.0073999264
0.031995699 0.079141237 0.0074126222
0.03410897 0.080196656 0.0077653518
0.036158007 0.081429668 0.0081839636
0.037595209 0.08202678 0.0083807167
-0.091558047 0.0039375722 0.0095341839
-0.090052158 0.0055072564 0.0094977543
-0.087792553 0.0068792542 0.0091438061
-0.085565448 0.0078724995 0.0084691262
0.035194259 0.078300714 0.0074807834
0.03719224 0.079648726 0.0080834432
0.039115969 0.080691226 0.0084457444
-0.094484061 -0.00053462922 0.0096545117
-0.092956699 0.00070186227 0.0096299797
-0.091020718 0.0018309584 0.0096141342
-0.088762194 0.0031986705 0.0092603182
-0.086563177 0.0045846379 0.0085716024
-0.085052073 0.0061598239 0.0085350629
0.036540899 0.077420935 0.0075277882
0.038548216 0.077550836 0.0075476207
0.040710509 0.078709237 0.0082006408
0.042176176 0.079512708 0.0085239746
-0.094861083 -0.0040387977 0.0097720828
-0.093538046 -0.0027486098 0.0097431783
-0.091602065 -0.0016195136 0.0097273327
-0.08973188 -0.00048187521 0.0093768314
-0.087688886 0.0009360172 0.008685112
-0.086434044 0.0025784951 0.008643114
0.040283203 0.075648598 0.0076350034
0.042238839 0.076581001 0.0076262611
0.044228852 0.077211425 0.0084289713
-0.091489717 -0.0049247271 0.0098439092
-0.089949936 -0.0038644336 0.0095754704
-0.088321172 -0.002555829 0.00894209
-0.086995885 -0.0012183433 0.0087686209
0.041590873 0.074121647 0.0077040936
0.043579739 0.074538149 0.0077137486
0.045899391 0.075578511 0.0078168316
0.047942739 0.076523289 0.0086982064
0.050091069 0.07721439 0.0087002004
-0.090854496 -0.0069915419 0.0099236481
-0.088894948 -0.0056425007 0.0090665333
-0.087190695 -0.004454216 0.0088790487
0.047062274 0.073669955 0.0077862842
0.04925197 0.074885048 0.0082708746
0.051435173 0.07609687 0.0087554669
0.053209752 0.076613262 0.0087590134
-0.091555178 -0.010148606 0.01002519
-0.089969598 -0.0089395819 0.0097799115
-0.088205673 -0.0074745282 0.0089719901
0.048664574 0.072262794 0.0078548063
0.050198615 0.073029093 0.0079896413
0.052402608 0.074004523 0.0085672028
0.054512925 0.075091578 0.0088278661
0.056113217 0.075195126 0.0088437013
-0.090507008 -0.012389464 0.010116013
-0.088701114 -0.011267179 0.0094317039
-0.087666444 -0.0095884865 0.0090521993
0.051578116 0.070839755 0.007939769
0.053728428 0.071798824 0.0082659777
0.055854727 0.072970085 0.0089181168
0.057633951 0.073859625 0.0089087281
-0.090636782 -0.016613781 0.010261663
-0.089561276 -0.014939439 0.010105214
-0.08756192 -0.013560414 0.0091919228
0.054956511 0.069576308 0.0080248406
0.056992739 0.070573524 0.0084595019
0.05914535 0.071777813 0.0089996234
0.06114573 0.07190726 0.0090194102
-0.092831276 -0.019967925 0.010351923
-0.090533845 -0.018213142 0.010318662
-0.088265322 -0.017124515 0.009682823
-0.087052427 -0.015995253 0.0092829857
0.056709088 0.067847885 0.0081063602
0.05845492 0.068336204 0.0082217027
0.060274251 0.069843285 0.0090807658
0.061823055 0.070746571 0.0090681016
-0.093557715 -0.022725122 0.01043923
-0.091928184 -0.021515507 0.010416855
-0.089626752 -0.020165375 0.010286565
-0.087810203 -0.019262852 0.0095877778
0.059732746 0.066593133 0.0081868134
0.061474755 0.067966804 0.008938374
0.063569583 0.069024123 0.00914934
-0.092318743 -0.024937708 0.0097808698
-0.090531826 -0.023628892 0.0099356333
-0.08842355 -0.022526523 0.0096051423
-0.087344676 -0.020849044 0.0094486121
0.061224971 0.065017648 0.008259845
0.063013189 0.065785758 0.0084771402
0.065080978 0.066942312 0.0092402343
0.066855557 0.067458704 0.0092438105
-0.090971813 -0.027127432 0.0096233916
-0.089029096 -0.025994407 0.0096074827
-0.087474927 -0.025087997 0.0095947795
0.064603336 0.063754246 0.0083448868
0.066511139 0.064676382 0.0091142412
0.068384513 0.065550126 0.0093288738
-0.091736212 -0.030737879 0.010740604
-0.089545116 -0.029431693 0.010054567
-0.087669738 -0.028323866 0.0097051775
-0.086423106 -0.027336631 0.0096859066
0.066274956 0.061718367 0.0084361499
0.067981988 0.06243455 0.0088766739
0.069956735 0.063414887 0.009422401
-0.090607353 -0.032672353 0.010821747
-0.088413581 -0.031370688 0.010135899
-0.086536959 -0.030265033 0.00978659
-0.08559788 -0.029196987 0.0097607803
0.067715287 0.05969638 0.008524131
0.069151834 0.060523 0.0088462792
0.07124237 0.061719973 0.0094970856
-0.089478478 -0.034606833 0.010902889
-0.087282106 -0.033309653 0.010217202
-0.085404158 -0.03220626 0.0098680323
0.068621539 0.058143396 0.0085892603
0.070159458 0.058643501 0.0088406447
0.07229735 0.059640754 0.0094822505
0.074145816 0.060301889 0.0095817735
-0.088145018 -0.036939465 0.010889194
-0.085987516 -0.035668738 0.0099816062
-0.084352337 -0.034454897 0.0099591585
0.071373083 0.056105513 0.0086937109
0.07345961 0.057313003 0.0093440181
0.075581178 0.058286849 0.0096694455
-0.086916551 -0.039333418 0.010320414
-0.08462815 -0.037998192 0.01007933
-0.083073974 -0.037091777 0.010066598
0.073120981 0.054002654 0.0087882299
0.07487718 0.055025492 0.0092741977
0.077016555 0.056271806 0.0097570876
-0.085496262 -0.041621849 0.010751016
-0.083268791 -0.04032765 0.010177026
0.076297067 0.052735087 0.0092044976
0.078371204 0.053950444 0.0098544704
-0.084345296 -0.043545961 0.010943247
-0.08213602 -0.042268828 0.010258437
0.077460118 0.050813407 0.009202213
0.079887278 0.052241724 0.0099324314
-0.083234683 -0.045497399 0.01091354
-0.081003211 -0.04421005 0.01033985
0.078688636 0.048923824 0.0090328408
0.080725677 0.05013131 0.0097659566
0.082965024 0.051236425 0.010004831
0.085339725 0.051791616 0.010014334
-0.084245488 -0.049212176 0.010808354
-0.081955433 -0.04788395 0.010567526
-0.080032393 -0.04676611 0.01044072
0.080129005 0.046901796 0.009120822
0.082180105 0.047856186 0.0096127596
0.084306829 0.049114935 0.010095081
0.086242825 0.050244045 0.010079236
-0.082947016 -0.051588211 0.010573408
-0.080615759 -0.050228592 0.010554324
-0.079288132 -0.048933934 0.010525338
0.083637543 0.04557747 0.0094597209
0.085661471 0.046793569 0.010192433
0.087597452 0.047922663 0.010176588
-0.081814244 -0.053529385 0.01065482
-0.08007656 -0.052342489 0.010634563
0.084769361 0.043637946 0.0095410887
0.086790331 0.044859085 0.010273576
0.088726357 0.045988139 0.01025773
-0.080681443 -0.055470608 0.010736233
-0.078725807 -0.054538202 0.01072749
0.085656188 0.041669201 0.0093703195
0.087808385 0.042815398 0.0096900715
0.089807793 0.044138338 0.010085169
-0.079322085 -0.057800069 0.010833927
-0.076990813 -0.056440439 0.010814874
0.087363593 0.039412633 0.0094696963
0.089306332 0.040545668 0.0094537884
0.091249041 0.041678678 0.0094379093
-0.077962719 -0.06012952 0.010931652
-0.075631455 -0.058769897 0.010912568
0.088722974 0.03708319 0.0095673911
0.090665683 0.0382162 0.009551513
0.092956446 0.039422117 0.0095372852
-0.074660636 -0.06132596 0.011013439
0.090082288 0.034753773 0.0096650859
0.092025042 0.035886746 0.0096492078
0.094356306 0.037246373 0.0096301232
-0.073249407 -0.063208856 0.011096214
0.091215089 0.032812543 0.0097465282
0.09315782 0.033945579 0.0097306194
0.095489115 0.03530515 0.0097115356
-0.072006516 -0.064981751 0.011173087
0.092347898 0.030871322 0.0098279407
0.094290636 0.032004364 0.0098120319
0.096335143 0.033345412 0.009790102
-0.070647143 -0.067311198 0.011270782
-0.069092982 -0.06640479 0.011258079
0.093788259 0.028849289 0.0099158911
0.095649995 0.029674895 0.0099097267
0.097204171 0.030581316 0.0098969946
-0.067960173 -0.068346009 0.011339491
0.095681719 0.02605078 0.010036437
0.097009346 0.027345438 0.010007421
0.096587941 0.024497846 0.010101566
0.098142147 0.025404215 0.010088834
0.097720742 0.022556622 0.010182979
0.099013336 0.0087400014 0.010680262
0.10056751 0.0096464176 0.010667529
0.096874692 -0.0018739821 0.011024218
0.09842886 -0.00096757122 0.011011515
0.093749784 -0.0056948615 0.011452979
0.095302187 -0.0047895056 0.011440329
0.097392403 -0.0036535761 0.011092553
0.099683166 -0.0024476561 0.011078326
0.094427422 -0.0082485229 0.012217347
0.096438184 -0.0071191899 0.012035655
0.098751768 -0.0059830304 0.011190249
0.10108303 -0.0046234042 0.011171164
0.10344011 -0.0036650104 0.011166382
0.094590485 -0.011792323 0.011342177
0.096225657 -0.010578478 0.011319729
0.098168395 -0.0094455145 0.011303851
0.10244238 -0.0069528599 0.011268859
0.094152674 -0.015950454 0.011481807
0.095253751 -0.014267566 0.011436509
0.097585008 -0.01290794 0.011417424
0.099301174 -0.011386688 0.011385264
0.1033486 -0.0085058119 0.011333989
-0.041843403 0.06737189 0.0059255273
-0.039893966 0.068508834 0.0059095556
-0.037944522 0.06964577 0.0058936141
-0.035605192 0.071010098 0.0058744727
-0.033265855 0.072374426 0.0058553014
-0.031706303 0.073283978 0.00584256
-0.059583936 0.053892437 0.0061799274
-0.05802438 0.054801989 0.0061671562
-0.056302276 0.056328502 0.00613489
-0.053948957 0.057924729 0.0061078342
-0.051850952 0.059446737 0.0060802526
-0.049901504 0.060583677 0.0060643111
-0.047952026 0.061720565 0.0060483404
-0.045612726 0.063084938 0.0060291979
-0.043273367 0.064449213 0.0060100565
-0.04093403 0.065813549 0.005990915
-0.038984589 0.066950485 0.0059749437
-0.037035137 0.068087429 0.0059590023
-0.034695815 0.069451757 0.0059398604
-0.032356478 0.070816077 0.0059206886
-0.030407038 0.071953021 0.0059047472
-0.028457595 0.073089957 0.0058888057
-0.025890926 0.074064709 0.0058859885
-0.023632852 0.075120531 0.0058765644
-0.021374779 0.076176353 0.0058672004
-0.065237857 0.047461916 0.0063353898
-0.063314341 0.049001496 0.0063050785
-0.061249472 0.050701823 0.0062709306
-0.059064448 0.052106708 0.0062484853
-0.057115007 0.053243645 0.0062325438
-0.055165567 0.054380588 0.0062165726
-0.05283374 0.055769235 0.0060853129
-0.050507631 0.057183258 0.005841882
-0.048574992 0.05839777 0.0054894537
-0.046621084 0.05953734 0.0054734992
-0.044276364 0.060904801 0.0054543195
-0.041931625 0.06227221 0.0054350505
-0.039873011 0.063597217 0.0055092075
-0.037866272 0.064468808 0.0055746855
-0.035674818 0.065833911 0.0057204901
-0.033332795 0.067199796 0.0057013291
-0.031146122 0.068551809 0.0058892202
-0.029140688 0.069520094 0.0055760485
-0.027087387 0.070842154 0.0056502139
-0.024745366 0.072208047 0.0056310529
-0.022414846 0.073481068 0.0059485296
-0.020465409 0.074618012 0.0059325881
-0.018515963 0.075754948 0.0059166169
-0.015949301 0.0767297 0.0059138294
-0.013609965 0.078094035 0.0058946582
-0.011043288 0.079068795 0.0058918409
-0.070133619 0.041821729 0.006472541
-0.068462968 0.043361798 0.0064391638
-0.066277951 0.044766683 0.0064167483
-0.064328507 0.045903619 0.006400777
-0.062401708 0.047082368 0.0061607007
-0.060081892 0.048490707 0.0059174341
-0.057758987 0.049901295 0.0056741182
-0.055805076 0.051040858 0.005658105
-0.053876761 0.052250434 0.0053057903
-0.051529363 0.053619459 0.0052865613
-0.049181957 0.054988489 0.0052673621
-0.028055348 0.067309752 0.005094449
-0.025707947 0.068678781 0.00507522
-0.023360558 0.070047811 0.0050560208
-0.021404387 0.071188673 0.0050400165
-0.019457709 0.072267301 0.0052484162
-0.01712898 0.073541306 0.0055658459
-0.014799385 0.074844524 0.005771101
-0.012473226 0.076146059 0.0059763705
-0.010133917 0.077510446 0.0059572281
-0.0081714839 0.078446038 0.0059484271
-0.0061702114 0.078777738 0.0059611653
-0.071563609 0.038899109 0.0065570404
-0.069819905 0.04009011 0.0065367143
-0.067293234 0.041120429 0.0061979275
-0.064989105 0.042544436 0.0058426801
-0.063071296 0.043744229 0.0054906113
-0.061115127 0.044885084 0.0054746065
-0.058767729 0.046254113 0.0054553775
-0.05642033 0.047623139 0.0054361783
-0.054464161 0.048763998 0.005420174
-0.052507997 0.049904857 0.0054041697
-0.015732018 0.071352921 0.0051031625
-0.013384616 0.072721951 0.0050839633
-0.011037211 0.074090987 0.0050647343
-0.0088944081 0.075320058 0.0056733279
-0.0070517883 0.076253861 0.0057048639
-0.0050983205 0.077836402 0.006006998
-0.0032030221 0.07876762 0.0059975456
-0.074076824 0.033952173 0.0066989306
-0.07280305 0.035530567 0.0066593876
-0.071022525 0.036777865 0.0066375681
-0.068738617 0.038212318 0.0061705727
-0.066234246 0.039279725 0.0056078266
-0.063694477 0.040312298 0.0052690897
-0.061770126 0.041511159 0.0049171005
-0.059809461 0.042654604 0.0049010543
-0.057466287 0.044047132 0.0047697937
-0.009896596 0.072136372 0.0051467163
-0.0079404311 0.073277228 0.0051307119
-0.0059830816 0.074609533 0.0052510109
-0.0038966571 0.076080598 0.0054156929
-0.0015972201 0.077281266 0.0054434566
0.00050036481 0.077794455 0.0060764402
-0.077700071 0.028967137 0.006828703
-0.075742386 0.030761605 0.0067899632
-0.0735728 0.032181747 0.0066555999
-0.071675479 0.033373997 0.0062479037
-0.06977348 0.034570571 0.0058401581
-0.06745407 0.035972726 0.0055970997
-0.06516894 0.037428208 0.0050181523
-0.062623046 0.038462624 0.0046794484
-0.060660154 0.039607402 0.0046633813
-0.0048436187 0.072463416 0.0051966906
-0.0024962109 0.073832452 0.0051774615
-0.00014880723 0.075201482 0.0051582623
-0.079536386 0.024502039 0.0069620297
-0.078652486 0.025853002 0.0069256579
-0.07688868 0.027113667 0.0067920107
-0.074629515 0.028548431 0.0062134368
-0.072331965 0.029959714 0.0058586253
-0.0703758 0.031100571 0.0058425916
-0.068460427 0.032287374 0.0054909298
-0.066189423 0.033753805 0.004800274
-0.063833959 0.035127535 0.0047809877
-0.079038493 0.023051823 0.0070186183
-0.077501096 0.023848679 0.006809359
-0.075640857 0.024863385 0.0061072307
-0.073310591 0.026245102 0.0059762038
-0.070992343 0.027641011 0.005733348
-0.06872727 0.029096328 0.0050429469
-0.066778831 0.03025537 0.0049150335
0.013776735 0.076834433 0.0062711122
0.015108927 0.078133613 0.0062419861
0.017058369 0.079270549 0.0062260744
0.019235177 0.080017857 0.0062264279
-0.08040797 0.019189697 0.0071365973
-0.07851477 0.020941576 0.0069873855
-0.076657347 0.021948349 0.0062854569
-0.07432799 0.022833979 0.0059397845
-0.072032481 0.023972623 0.0054037785
-0.069723733 0.025383243 0.0050491081
0.014099303 0.07519272 0.0057604257
0.016071629 0.076025352 0.0059519326
0.018195121 0.077322587 0.0063077873
0.020534446 0.078686908 0.006288616
0.022657052 0.079228602 0.0062954873
-0.082916871 0.014175677 0.0072808866
-0.081400543 0.0157563 0.0072442358
-0.079526328 0.017257592 0.0068811127
-0.077289067 0.018685082 0.0061914064
-0.075141422 0.019839158 0.0058913534
-0.073456824 0.021023566 0.0055845976
-0.070934646 0.022048157 0.0051506474
-0.068579175 0.023421882 0.0051313606
0.017389461 0.073902525 0.0054165092
0.019697431 0.075207114 0.0056214584
0.02198128 0.076477751 0.0059384452
0.024237832 0.077713743 0.0063675107
0.02646881 0.078666732 0.0063614054
-0.083523855 0.011036769 0.0073829251
-0.082397379 0.012389952 0.0073494748
-0.080502741 0.013551528 0.0069984244
-0.078267694 0.014970468 0.0063089849
-0.075969703 0.016367277 0.0059546381
-0.073715873 0.017797243 0.0052650347
-0.071752951 0.018941965 0.0052489676
-0.069790095 0.020086795 0.0052328999
0.021105636 0.072925985 0.0054956591
0.023453034 0.074295007 0.0054764599
0.025455017 0.075562142 0.0057425145
0.027754419 0.076582916 0.0061767334
0.029903639 0.077676177 0.0064376048
0.031623404 0.078191772 0.0064405068
-0.084315009 0.0076163886 0.0074925488
-0.082982779 0.0089155175 0.0074634533
-0.081089027 0.010073136 0.0071125063
-0.079246365 0.011255918 0.0064265626
-0.076898925 0.012624897 0.0064073638
-0.074664563 0.014053015 0.0056063784
-0.072342381 0.015443584 0.0053637559
-0.070549592 0.016699508 0.0053417385
0.024865201 0.072009832 0.0053508878
0.026777972 0.073090293 0.0055588046
0.028823741 0.074371748 0.0056390865
0.031100122 0.075378835 0.0061569633
0.033204176 0.07667692 0.0065125301
0.035326794 0.077218615 0.0065194014
-0.083984002 0.0056163385 0.0075662616
-0.081846066 0.0069676018 0.0075451653
-0.079937398 0.0081183333 0.0072780452
-0.077918082 0.0092070764 0.0063711456
-0.075579539 0.010299487 0.0061708735
-0.073324397 0.011716235 0.005481733
-0.071383245 0.013198829 0.0054536243
0.029874755 0.072276533 0.0056247828
0.032222159 0.073645562 0.0056055831
0.034378711 0.074776068 0.0064262319
0.036680229 0.076093331 0.0065750708
-0.086492904 0.00060232636 0.0077105812
-0.085233703 0.0022504691 0.0076684346
-0.083048694 0.0036553561 0.0076460191
-0.081148677 0.0051360726 0.0074507054
-0.076334521 0.0078575769 0.0055796821
-0.074535318 0.0083811451 0.0055832723
0.031015409 0.070321873 0.0057067657
0.03336281 0.071690895 0.0056875367
0.035606116 0.072935149 0.0061161397
0.03781696 0.074145354 0.0066567836
0.039685123 0.074973844 0.0066505596
-0.08595182 -0.0015189128 0.0077911089
-0.084023975 -4.6466823e-05 0.0077631976
-0.081684642 0.0013178606 0.0077440562
-0.080579765 0.0030065565 0.0076985764
0.034731571 0.069345318 0.0057859151
0.03707898 0.070714355 0.0057667159
0.039262541 0.071898758 0.0064190356
0.041479699 0.073017962 0.0067405673
0.043924499 0.073529936 0.0067523569
-0.086515583 -0.0053289067 0.007917027
-0.085019089 -0.0037467603 0.007768915
-0.082795173 -0.0023691265 0.0070807128
-0.080487281 -0.00099525542 0.0068385238
-0.078694202 -0.00047353611 0.0068421112
0.038474511 0.068397492 0.0057532219
0.04040391 0.069509625 0.0058490904
0.042622052 0.070741877 0.0063334629
0.044833876 0.071971595 0.0068177446
0.046312135 0.072572686 0.0068147206
-0.087165773 -0.0077968086 0.0079951566
-0.085267596 -0.0068385168 0.0073594153
-0.083213694 -0.0058635897 0.0068321098
-0.081487849 -0.0045510242 0.0065749944
-0.079280533 -0.0033245001 0.0059336452
-0.076965973 -0.0021060857 0.0059192809
0.043728855 0.068304911 0.0059314352
0.045820534 0.069613352 0.0062865359
0.047920033 0.071160614 0.0068834852
-0.086470373 -0.0099586146 0.0080789579
-0.084420793 -0.0088438122 0.0072072432
-0.081974953 -0.0075760088 0.0065494538
-0.08009886 -0.0064306329 0.0060319654
-0.078135975 -0.0052858638 0.0060158977
-0.076380238 -0.0040866523 0.0059954347
0.044869475 0.066350304 0.0060134176
0.047191959 0.067914031 0.006130056
0.049087647 0.069241859 0.0068533504
0.051019121 0.070148326 0.0069563962
-0.086365491 -0.013944296 0.0082191415
-0.085300691 -0.012258678 0.0079509467
-0.083096981 -0.010900859 0.0071520754
-0.080898099 -0.0095363604 0.0062417015
-0.078954309 -0.0083919987 0.0061142477
-0.077694759 -0.0073945099 0.0060947752
0.04835752 0.065764666 0.0060762009
0.050609972 0.067046553 0.0063924063
0.05276012 0.068239525 0.0070440928
0.054547045 0.068759456 0.0070476467
-0.085948154 -0.015938785 0.0082937526
-0.084055245 -0.014613113 0.0073810094
-0.081803143 -0.013254069 0.006805039
-0.079543717 -0.011890438 0.0062290067
-0.077750929 -0.010634513 0.0062070191
0.049850322 0.063527517 0.0057275053
0.052073684 0.064788111 0.0061553512
0.054255411 0.066014558 0.006695054
0.056305692 0.06702508 0.0071294764
-0.086658731 -0.018814886 0.0083853239
-0.08494401 -0.018162375 0.0077579822
-0.082764022 -0.01697145 0.0070341299
-0.080525726 -0.015617781 0.0063470141
-0.078584582 -0.014135192 0.0063189049
0.053474929 0.062469024 0.0061420267
0.055398617 0.063583389 0.0062377257
0.057312932 0.064865671 0.0068167169
0.059387129 0.065838367 0.0072082239
-0.086147487 -0.02125814 0.0084767397
-0.084096938 -0.020176755 0.0076062162
-0.081736632 -0.018952865 0.0064485534
-0.079773739 -0.017808091 0.0064324862
0.054731023 0.060605016 0.0058330568
0.056539237 0.061628774 0.0063197082
0.058749236 0.063199647 0.0067920983
0.060699377 0.064306065 0.007277552
-0.086497299 -0.02446462 0.0085842144
-0.084997714 -0.023572331 0.008237795
-0.082811013 -0.02225009 0.0073287743
-0.080592081 -0.020914232 0.006530806
-0.079250664 -0.019606154 0.0065015196
0.055632509 0.058533285 0.0054158764
0.057424247 0.059548303 0.00595822
0.059715055 0.0609602 0.0064816363
0.061895136 0.061961588 0.0071236324
0.063622989 0.062878132 0.0073628472
-0.085354246 -0.027139861 0.0086913295
-0.083671451 -0.02592648 0.0081135891
-0.081459947 -0.024603311 0.0073160222
-0.079508349 -0.023286609 0.0066266614
0.057005957 0.056179665 0.0055145971
0.058968849 0.057324439 0.0054985294
0.061040211 0.058494341 0.0063724201
0.063279003 0.05978591 0.0066881231
0.06532333 0.060815092 0.0074554323
-0.085101388 -0.030438781 0.008809384
-0.08395192 -0.029391438 0.0086439
-0.082297891 -0.028127352 0.0080123534
-0.080144674 -0.026973123 0.007080982
-0.078407824 -0.025739318 0.006725518
0.058543097 0.054447263 0.0055936305
0.060342342 0.054970782 0.0055972515
0.062516958 0.056221087 0.0061360076
0.064720996 0.057492845 0.0065632155
0.066728026 0.05863183 0.0075485809
-0.084192023 -0.031997129 0.0088747423
-0.082689799 -0.031113472 0.0085286228
-0.080603249 -0.029982127 0.0076473043
-0.078911878 -0.02877219 0.0070252344
-0.07748574 -0.028040778 0.0068169096
0.061486889 0.053009413 0.005679504
0.063732073 0.054311324 0.0059949299
0.06586162 0.055538233 0.0066451677
0.067864768 0.056683861 0.0076302635
0.069651656 0.057203837 0.0076338169
-0.083276279 -0.034282781 0.0089655323
-0.081570573 -0.033073485 0.0084993178
-0.079372436 -0.031779069 0.0075914427
-0.077518925 -0.030689007 0.0069088209
-0.076799005 -0.02921758 0.0068662851
0.062631451 0.051048055 0.0057617566
0.064875342 0.052352179 0.0060771029
0.067002252 0.053583555 0.0067271506
0.069078408 0.054783467 0.0074888594
0.070561036 0.055645496 0.0076991748
-0.082081139 -0.036509924 0.0090577211
-0.080241509 -0.035435174 0.0083754389
-0.078037038 -0.034147464 0.0074678208
-0.076456212 -0.032960936 0.0070009166
0.064004906 0.048694443 0.0058604777
0.066360377 0.05006817 0.0058411909
0.068409204 0.051260188 0.0067140367
0.070560865 0.052513495 0.0072524403
0.072314985 0.053535394 0.0077940412
-0.081106953 -0.039074857 0.0091589289
-0.07892897 -0.037812654 0.0081406869
-0.076717362 -0.036530361 0.0072333249
-0.07562238 -0.034840681 0.0070765452
0.065757915 0.046772446 0.0059487419
0.067733839 0.047714569 0.0059399116
0.069972567 0.049022049 0.0062551154
0.072047316 0.050238717 0.0070161927
0.074068941 0.051425241 0.0078889085
-0.079970241 -0.041022774 0.0092406403
-0.07778836 -0.039767273 0.0082226694
-0.075793125 -0.038515538 0.0072025587
0.067079179 0.045229636 0.0060185734
0.068878382 0.0457532 0.0060221641
0.071233869 0.047126938 0.0060028778
0.073227823 0.048306823 0.0069866916
0.07526692 0.049509916 0.0078034126
-0.078833528 -0.042970691 0.0093223229
-0.076664299 -0.041734874 0.0081937341
-0.074838333 -0.040692739 0.0072900546
0.070181884 0.044034757 0.0060978974
0.072378419 0.045165569 0.0060851602
0.074408934 0.046372496 0.0069572665
0.076465949 0.047592796 0.0077180229
0.077901915 0.048438948 0.0080395015
-0.079029031 -0.046217732 0.0094331019
-0.077520847 -0.045350481 0.0090876436
-0.07532765 -0.044108193 0.0080703245
-0.073775619 -0.042964663 0.0073821512
0.071952656 0.042288389 0.0061802603
0.073751904 0.042811908 0.0061838813
0.075859718 0.044065744 0.0068329368
0.07791581 0.045293145 0.0075933821
0.079668835 0.046127498 0.0081415083
-0.078156993 -0.048991423 0.0095403912
-0.076205954 -0.047736134 0.0088531589
-0.074005373 -0.04650031 0.0078361332
-0.072484002 -0.04562892 0.0074906861
0.075125352 0.040458292 0.0062825726
0.077355005 0.041774482 0.006597341
0.079410724 0.043010052 0.0073575638
0.081409827 0.044218693 0.0082292352
-0.079051726 -0.052148975 0.0096395472
-0.077308014 -0.05095797 0.0096192509
-0.075066626 -0.049688537 0.0089350613
-0.072885796 -0.048483007 0.0077520483
0.076662503 0.038725894 0.0063616354
0.078498229 0.039815377 0.0066794837
0.080594026 0.041075416 0.0073281853
0.082546532 0.042270772 0.0083109178
-0.078039497 -0.053734325 0.0097070979
-0.076171309 -0.052905891 0.0097009335
-0.073943831 -0.051657435 0.008906154
-0.071765199 -0.050467458 0.0076680691
0.078199632 0.036993485 0.0064406684
0.079377368 0.03768035 0.0064310404
0.081439763 0.038932394 0.0071630012
0.083727457 0.040340912 0.0082813194
0.085697517 0.040453214 0.0084125083
-0.074807256 -0.05524338 0.0097989701
-0.072560102 -0.053983834 0.0091152582
-0.0703917 -0.052821115 0.0077667902
0.080750823 0.035326738 0.006529761
0.082875311 0.036609996 0.0070945569
0.085180923 0.038037769 0.0081568705
0.08660689 0.038894862 0.0084778657
-0.073443182 -0.057580926 0.0098970076
-0.071223326 -0.056364205 0.0089920647
-0.06901826 -0.055174734 0.0078654811
-0.067219041 -0.054651164 0.0078691021
0.082124315 0.032973081 0.0066284528
0.084279031 0.034273334 0.007109683
0.086546533 0.035697594 0.0082550207
0.087970942 0.036557376 0.0085759023
-0.073638685 -0.060827971 0.010007786
-0.07207913 -0.059918419 0.0099950442
-0.070098139 -0.058337159 0.0089633148
-0.067873694 -0.057136092 0.0079477644
-0.06630338 -0.056220267 0.007934886
0.08232002 0.029932592 0.0067368019
0.083268866 0.031011714 0.0067107351
0.085321262 0.032280914 0.0074419426
0.087918408 0.033500209 0.0084316721
0.089334987 0.034219887 0.0086739399
-0.072729312 -0.062386315 0.010073144
-0.070942417 -0.061866332 0.010076757
-0.0689575 -0.060291834 0.0090452675
-0.066702262 -0.059058003 0.0082513215
-0.065158822 -0.058181632 0.0080171684
0.083235689 0.028363485 0.0068026162
0.084413424 0.029050354 0.0067929877
0.086462922 0.030324558 0.0075240005
0.088762149 0.031484198 0.008619382
0.09047173 0.032271914 0.0087556224
-0.069805674 -0.063814305 0.01015844
-0.067547061 -0.062574379 0.0094755031
-0.06530413 -0.06136905 0.008571256
-0.06347461 -0.060616914 0.0081224842
0.084609143 0.026009878 0.0069013368
0.086036511 0.026740357 0.0071433554
0.08796069 0.028174097 0.0077672689
0.090048894 0.029414447 0.0088501358
0.091608442 0.030323997 0.0088373348
-0.068051741 -0.065924414 0.010253306
-0.066153876 -0.064873531 0.0097949859
-0.063908234 -0.063676991 0.0088910405
-0.062019296 -0.062659949 0.0082113622
0.085982628 0.023656208 0.0070000584
0.087204568 0.024536716 0.0071271393
0.089322984 0.025612554 0.0077911862
0.091460086 0.027089957 0.0088370871
0.093375325 0.028012596 0.0089393407
-0.066789806 -0.068470702 0.010357366
-0.064775005 -0.067192294 0.010003719
-0.062684417 -0.065967791 0.0090691401
-0.060874742 -0.064621307 0.0082936445
0.087127194 0.021694854 0.007082311
0.088304915 0.022381714 0.0070726825
0.090609394 0.02340816 0.0078836232
0.092919469 0.024776665 0.0087130582
0.094828561 0.026085142 0.0090242149
-0.065940864 -0.070437208 0.010436226
-0.063636974 -0.069142476 0.010085512
-0.061391622 -0.067768291 0.008968872
-0.059730187 -0.066582672 0.0083758971
0.088271745 0.019733489 0.0071645635
0.089449488 0.020420359 0.007154935
0.091542676 0.021388385 0.0078137852
0.093985476 0.022809211 0.0089613395
0.095863163 0.023928422 0.0091119204
-0.064804122 -0.072385177 0.010517938
-0.062498938 -0.071092658 0.010167304
-0.060254011 -0.069939002 0.0091536883
-0.058356736 -0.068936288 0.0084746173
0.089422703 0.017039828 0.0072724232
0.090995707 0.018040048 0.0073996261
0.092892058 0.019496448 0.008047699
0.095050432 0.020843569 0.009209604
0.096999876 0.021980507 0.0091936328
-0.061133325 -0.073432826 0.010265455
-0.058883656 -0.072287321 0.0092521515
-0.05698324 -0.071289949 0.0085733095
0.090233497 0.014568351 0.0073684142
0.0923509 0.015896121 0.0079038152
0.094461046 0.017219206 0.0084392494
0.096414492 0.01850608 0.0093076406
0.09875381 0.019870406 0.0092884693
-0.05999548 -0.0753837 0.01034722
-0.057756327 -0.074282244 0.0091685709
-0.055838685 -0.073251307 0.0086555919
0.089807741 0.011691174 0.0074635446
0.091378048 0.012606991 0.007450697
0.093531162 0.013514175 0.0084459204
0.095780514 0.014864974 0.008648498
0.097736135 0.016229142 0.0091528473
-0.058619909 -0.077502221 0.0087699788
-0.056657031 -0.076357454 0.0087539116
-0.054301552 -0.074983716 0.0087346248
0.090870477 0.0094191851 0.0075556412
0.092427112 0.010631281 0.0077546351
0.094671808 0.011559508 0.0085279029
0.09701921 0.012928537 0.0085086739
0.098618731 0.014097562 0.0088209314
-0.055239432 -0.078575656 0.0094043836
-0.052928094 -0.077337325 0.008833346
-0.050952148 -0.076395258 0.0088245161
0.091933206 0.0071471897 0.0076477379
0.093560047 0.0082482891 0.0084074344
0.095665097 0.0095848683 0.0089423172
0.097861178 0.010931129 0.009255657
0.099272221 0.01181793 0.0095754135
-0.053834978 -0.080814771 0.0099442415
-0.051516641 -0.079553932 0.0094837081
-0.049591754 -0.078546166 0.008915999
-0.048185084 -0.0782516 0.0089228097
0.092866108 0.0045599197 0.0078604175
0.094736189 0.0058795414 0.0089489967
0.096737377 0.0072065508 0.0097053926
0.09896531 0.0085059144 0.0096871527
0.10144845 0.0094319135 0.0096849892
-0.052466214 -0.083160356 0.010042621
-0.050510045 -0.0820195 0.010026616
-0.048736911 -0.080961965 0.0095109204
-0.046876881 -0.079591706 0.0089854039
0.092488334 0.0016874509 0.0078447787
0.094210364 0.0023358571 0.0086213993
0.095911965 0.0036689215 0.0095684873
0.098101422 0.0048690601 0.0098034302
0.10044079 0.0062333355 0.0097842887
-0.051325563 -0.085115016 0.010124603
-0.049369395 -0.08397416 0.01010857
-0.047421128 -0.082709402 0.0096592791
-0.045380652 -0.081479423 0.0090693599
0.093168348 -0.00050689391 0.0080962842
0.095316425 0.00024212162 0.0093471613
0.097516067 0.0013945817 0.0099174082
0.099465504 0.002531515 0.0099014668
0.10180484 0.0038958464 0.0098823253
-0.04822877 -0.085928775 0.010190551
-0.046272606 -0.08478792 0.010174547
-0.043961573 -0.08364854 0.0092733745
-0.042085219 -0.082843579 0.0091569349
0.092613868 -0.0037861667 0.009037775
0.094211988 -0.0028017848 0.0092452252
0.096095316 -0.0015689741 0.0098033324
0.098425433 -0.00016377079 0.0099827368
0.10060222 0.00058360311 0.0099831494
0.10294155 0.0019479255 0.0099640079
-0.04705761 -0.088334978 0.011039156
-0.044888768 -0.087042034 0.010603529
-0.042560365 -0.085793644 0.010143517
-0.040278245 -0.084812969 0.0092475154
-0.038209196 -0.084526397 0.0092626521
0.10189678 -0.00112308 0.010058373
0.10407826 8.5736831e-09 0.01004572
-0.043499619 -0.089230023 0.011252577
-0.041187666 -0.088110045 0.010352076
-0.039003659 -0.086800642 0.0099577187
-0.037184458 -0.085681297 0.0093153603
0.10303819 -0.0026952757 0.010126989
-0.042376135 -0.091291212 0.010948882
-0.040047016 -0.090064704 0.010434058
-0.037688386 -0.088501699 0.010265255
-0.035591256 -0.087176047 0.0094979675
-0.033564609 -0.087075382 0.0094079003
-0.038891044 -0.091826171 0.011176646
-0.036555555 -0.090586476 0.010716995
-0.034367874 -0.089309633 0.010226564
-0.032358725 -0.088585712 0.009618124
-0.030849738 -0.088120922 0.0094773052
0.10193222 -0.010650719 0.010390855
-0.035569057 -0.092931539 0.011589072
-0.033621412 -0.09192203 0.011132798
-0.031277508 -0.090745248 0.010453101
-0.028960934 -0.08977969 0.0095580416
-0.026891911 -0.089493051 0.0095731784
0.094692811 -0.017588165 0.010544749
0.096440814 -0.016464239 0.010526793
0.098390274 -0.015327294 0.010510881
0.10065657 -0.01361396 0.010478688
-0.032255568 -0.094132088 0.011671137
-0.029910289 -0.092994183 0.010881614
-0.027556419 -0.091785528 0.010312155
-0.025531262 -0.090382002 0.0096206842
0.093700252 -0.021021541 0.010652388
0.09562809 -0.019549096 0.010624476
0.097577535 -0.018412154 0.010608534
0.099526986 -0.01727521 0.010592563
0.10186632 -0.01591089 0.010573422
-0.028550727 -0.09513814 0.011639997
-0.026437795 -0.093835272 0.010873711
-0.024283974 -0.092076421 0.010028481
-0.022299519 -0.091231242 0.0096895378
0.093547955 -0.024939667 0.010787075
0.094652794 -0.023250921 0.010741655
0.096992135 -0.021886595 0.010722513
0.098941617 -0.020749701 0.010706572
0.10089106 -0.019612757 0.010690601
-0.025136819 -0.095489308 0.011304563
-0.022933062 -0.094230957 0.010787098
-0.020550733 -0.093120418 0.0098877884
-0.018747305 -0.092629679 0.0097814221
0.094045818 -0.026389835 0.010843663
0.095789559 -0.025198875 0.010823367
0.098128885 -0.02383456 0.010804226
-0.023939399 -0.097636819 0.011894286
-0.021564284 -0.096576527 0.010885477
-0.019354999 -0.095278047 0.010491798
-0.017319871 -0.094529375 0.010007899
-0.015356385 -0.093631461 0.0098575233
-0.020195525 -0.098922111 0.010983856
-0.018239362 -0.097781256 0.010967852
-0.016283195 -0.096640401 0.010951817
-0.014052127 -0.095416725 0.010310826
-0.012194366 -0.094240993 0.0099171568
-0.017098701 -0.099735916 0.011049804
-0.01514254 -0.09859506 0.011033799
-0.012761992 -0.097079575 0.010723975
-0.010602697 -0.095766298 0.009989637
-0.0084654456 -0.095220879 0.0099965911
-0.014001884 -0.10054972 0.011115783
-0.011654521 -0.099180646 0.011096583
-0.0092808828 -0.097913474 0.010747656
-0.0068737403 -0.096746229 0.010069071
-0.004897817 -0.095804118 0.010060241
-0.0028827365 -0.095470138 0.010073063
-0.0079383533 -0.1001572 0.011175733
-0.0058665699 -0.098850794 0.011012394
-0.0038228724 -0.098069377 0.010652579
-0.0015744965 -0.096810296 0.010135658
0.00089863013 -0.095998868 0.010137409
0.0032016933 -0.095076337 0.010133212
0.085631505 -0.046634305 0.010446439
0.087170422 -0.045317613 0.010419222
-0.0026572535 -0.10022106 0.011242103
-0.0002857217 -0.098920569 0.011003174
0.0021022765 -0.097652614 0.010654433
0.0042809988 -0.096024193 0.010179367
0.006243886 -0.094879419 0.0101633
0.0082067819 -0.093734644 0.010147233
0.010005992 -0.093211077 0.010150824
0.082611196 -0.050516516 0.0095443828
0.084266543 -0.049615517 0.0097332243
0.08595299 -0.048551578 0.010141874
0.0034063174 -0.099828579 0.011302054
0.0053288979 -0.098125733 0.010865753
0.0072926874 -0.09735129 0.010595754
0.0093513345 -0.095696002 0.010229485
0.01166586 -0.094477534 0.01021512
0.013734948 -0.094191007 0.010230258
0.079688057 -0.05572651 0.0096904701
0.081232265 -0.054405265 0.0096631777
0.083286069 -0.052747864 0.0097304443
0.085437305 -0.051709954 0.010348092
0.087521538 -0.050771762 0.010613598
0.0084932027 -0.099312849 0.011202876
0.010724791 -0.098049618 0.010328206
0.013080262 -0.096675888 0.010308919
0.01558281 -0.096005037 0.010315945
0.077135734 -0.060369667 0.0098213255
0.078291737 -0.059344981 0.0097996546
0.079973884 -0.057794284 0.0097660348
0.082173996 -0.05637975 0.0097434362
0.084238246 -0.055060081 0.010347982
0.086706027 -0.053867277 0.010711585
0.012037327 -0.1000239 0.010698846
0.014453755 -0.099029548 0.010407641
0.016809218 -0.097655818 0.010388354
0.018772075 -0.096510991 0.010372287
0.020963896 -0.09575852 0.010372688
0.023548272 -0.09477704 0.01036987
0.073405676 -0.065699697 0.009961809
0.075139672 -0.064162664 0.0099292733
0.077266201 -0.062396634 0.0098935477
0.079388753 -0.061086811 0.010374
0.081128255 -0.059762117 0.010420465
0.083195344 -0.058579121 0.010722003
0.085271128 -0.056800012 0.0107964
0.018086407 -0.099833809 0.011035711
0.02008553 -0.098760113 0.010800189
0.021906724 -0.097601451 0.010698517
0.024234993 -0.095953844 0.010419215
0.026479227 -0.094750166 0.010404528
0.028389709 -0.094056599 0.010403549
0.070002981 -0.069787309 0.010062947
0.071736969 -0.068250284 0.010030442
0.073699854 -0.067105509 0.010014375
0.076185055 -0.065893948 0.010377585
0.078302488 -0.064577714 0.010871679
0.080608286 -0.063187242 0.010962384
0.023104958 -0.099178866 0.011375633
0.025336344 -0.097846225 0.010720914
0.027735025 -0.096541479 0.010482211
0.029697916 -0.095396705 0.010466143
0.031660806 -0.094251931 0.010450076
0.034245204 -0.093270496 0.010447258
0.036489405 -0.092066772 0.010432541
0.038792461 -0.091144241 0.010428343
0.039970204 -0.09045738 0.010418715
0.054495595 -0.081986047 0.010299835
0.05606591 -0.081070222 0.010286987
0.058028802 -0.079925448 0.01027092
0.060358156 -0.078146286 0.010237188
0.062674142 -0.076854445 0.010363219
0.064532831 -0.07570906 0.010488798
0.066241331 -0.074388571 0.010359618
0.068563156 -0.072730146 0.010148048
0.070918635 -0.071356423 0.010128762
0.072881527 -0.070211641 0.010112694
0.074844413 -0.06906686 0.010096627
0.076827526 -0.067874484 0.010579485
0.031071406 -0.097750366 0.010564836
0.033034295 -0.096605599 0.010548798
0.035363633 -0.095198542 0.010639194
0.037665103 -0.093759298 0.010839386
0.039708089 -0.092713304 0.010494157
0.041671012 -0.091568574 0.01047809
0.044026487 -0.090194851 0.010458804
0.046381921 -0.088821068 0.010439546
0.048344817 -0.087676294 0.010423479
0.050307706 -0.08653152 0.010407411
0.052663207 -0.085157827 0.010388126
0.055018645 -0.083784051 0.010368838
0.056981534 -0.082639284 0.010352802
0.058840122 -0.081409819 0.010666098
0.061121628 -0.079983048 0.010866423
0.063368231 -0.078719892 0.011044277
0.065512158 -0.077755153 0.011286844
0.056089509 -0.085870452 0.011455268
0.058045674 -0.084729597 0.011439263
-0.069657713 0.016115407 0.0043722526
-0.076817133 -0.0059976238 0.0050560739
-0.075285099 -0.0044006682 0.0050190012
-0.076521978 -0.0074081789 0.0051088193
-0.074552365 -0.0062594879 0.0050926893
-0.076883696 -0.011312207 0.0052404935
-0.075767405 -0.0096060233 0.0051945867
-0.073403865 -0.0082275979 0.0051752422
-0.077496991 -0.014483578 0.0053435788
-0.07635884 -0.013116416 0.0053097499
-0.074389234 -0.011967726 0.0052936496
-0.078608096 -0.017857427 0.0054476764
-0.076950282 -0.016626805 0.0054249135
-0.074766412 -0.015495725 0.0052690897
-0.073056355 -0.014186601 0.0047617429
-0.07796184 -0.019960152 0.0055288384
-0.07580182 -0.018594863 0.0055074659
-0.073531725 -0.01723667 0.0048205769
-0.078362875 -0.023253946 0.0056387596
-0.07701686 -0.021941401 0.0056093629
-0.074684955 -0.020572329 0.0053676032
-0.077296503 -0.025533721 0.0057311598
-0.075638689 -0.024303101 0.0057083964
-0.073368236 -0.022957878 0.0050219931
-0.076459847 -0.027419854 0.0058070784
-0.074490219 -0.026271157 0.0057909489
-0.072017662 -0.025338594 0.0048989868
-0.075549364 -0.029658657 0.0058961622
-0.073387854 -0.028262418 0.0055402173
-0.075673111 -0.033291947 0.006021305
-0.074327126 -0.031979349 0.0059918789
-0.072084427 -0.03066933 0.005083994
-0.074747905 -0.035601232 0.0061130272
-0.073010035 -0.034380615 0.0056468286
-0.070717178 -0.033047497 0.0050722868
-0.074722163 -0.038540654 0.0062157772
-0.073770076 -0.037457842 0.006189595
-0.071890198 -0.036372785 0.005507479
-0.069564782 -0.035022303 0.0051551093
-0.073803373 -0.040115114 0.0062818192
-0.072272576 -0.039231025 0.0059360154
-0.070388712 -0.038149714 0.0052541252
0.069814116 0.043116409 0.0051247599
-0.072648458 -0.042818051 0.0063900519
-0.070907399 -0.041608393 0.0059243189
-0.069005854 -0.040519454 0.0053535001
0.071356513 0.041378096 0.0052040983
0.072997667 0.041280076 0.0052274177
-0.07144095 -0.045068253 0.00648316
-0.069555745 -0.044000559 0.0058016768
-0.067622989 -0.042889189 0.0054528755
0.072734684 0.0390164 0.0053031314
0.07391645 0.039705608 0.0052934596
-0.070686407 -0.047266047 0.0065689264
-0.06840466 -0.045973092 0.0058844192
-0.066470578 -0.044863977 0.0055357283
0.07545884 0.037967294 0.0053727981
-0.069537915 -0.049234156 0.0066514495
-0.06725359 -0.047945634 0.0059671914
-0.065318182 -0.046838783 0.0056185508
0.077001251 0.036228925 0.0054521067
-0.068159744 -0.051595856 0.0067505129
-0.065872289 -0.050312694 0.0060664527
-0.063935325 -0.049208522 0.0057179267
-0.061958984 -0.048055913 0.0057017631
0.076409817 0.032718532 0.0055672703
0.07837943 0.033867225 0.0055511701
0.079955123 0.034786176 0.005538254
-0.066622101 -0.053713806 0.006842996
-0.064490959 -0.052679796 0.0061657438
-0.06255243 -0.051578306 0.0058173318
-0.060971357 -0.050656214 0.0058043776
