# .PCD v0.7 - Point Cloud Data file format
VERSION 0.7
FIELDS x y z
SIZE 4 4 4
TYPE F F F
COUNT 1 1 1
WIDTH 1276
HEIGHT 1
VIEWPOINT 0 0 0 1 0 0 0
POINTS 1276
DATA ascii
0.015702242 0.079531431 0.0075803567
0.013337093 0.080068924 0.0078024818
0.010777163 0.080416642 0.0077088624
0.0084008174 0.08101026 0.0077502634
0.0059467573 0.08155942 0.0078882268
0.0034645698 0.081629537 0.0078761
0.0012902636 0.082184918 0.0081817117
-0.0011219631 0.082507581 0.0081610158
0.046242643 0.070137627 0.008779116
0.044223152 0.070648849 0.008467433
0.042236373 0.071397871 0.0082645165
0.03977314 0.072111756 0.0079342537
0.037215643 0.072727777 0.0076525435
0.034942672 0.072925813 0.0073031969
0.032373138 0.073544763 0.0070213266
0.029799161 0.074148983 0.0067955721
0.027700745 0.074756503 0.0065437537
0.02509038 0.075600654 0.0065039983
0.0225132 0.076149166 0.006474724
0.020304177 0.076619297 0.0064496417
0.018095175 0.077089496 0.0064245602
0.015369124 0.077541515 0.0063981134
0.012862359 0.077818602 0.0063786404
0.010548303 0.078300625 0.0066528926
0.0079881055 0.07870663 0.0066014109
0.0055345641 0.079281159 0.0066323569
0.0029615383 0.079798736 0.0071173841
0.00058324664 0.080453366 0.0074892361
-0.0017566043 0.080967113 0.0077837678
-0.0043089618 0.081292115 0.0077624405
-0.0066293962 0.081557572 0.0079227556
-0.0088913478 0.081872337 0.0081530884
0.052557535 0.065741703 0.0089578824
0.051174842 0.066417448 0.0089288075
0.049048815 0.067514546 0.0084818006
0.046561494 0.068028755 0.0079537844
0.044029642 0.068467088 0.0074436311
0.041755755 0.068905883 0.0070538009
0.039382577 0.069936022 0.0067582717
0.036769174 0.07080695 0.0067175748
0.034783486 0.071421936 0.0066882605
0.03206145 0.07219363 0.0066506052
0.0070259902 0.077522166 0.0063663376
0.0049618436 0.077769183 0.006349653
0.002758868 0.077880912 0.0063371854
0.00014317018 0.078077793 0.0063970461
-0.00237882 0.078299507 0.0065526757
-0.0047352342 0.078841187 0.0067746677
-0.007307705 0.079257868 0.0069168359
-0.0095333699 0.080242082 0.0076074023
-0.012031809 0.080534182 0.0078029865
-0.014410105 0.08054015 0.0081783757
-0.016594866 0.080650948 0.0081659928
0.05559827 0.062996395 0.0090660257
0.053222787 0.063757643 0.0084964251
0.050807282 0.0645395 0.0077424897
0.048721183 0.065192066 0.0073248399
0.046353653 0.065817982 0.0069298577
0.043583326 0.066664025 0.0068893787
-0.0053830598 0.077086098 0.006333394
-0.0078171082 0.077274479 0.0063173333
-0.010304609 0.077594548 0.0064783441
-0.012553169 0.078201994 0.0067666713
-0.015103414 0.078506477 0.0068175821
-0.017507726 0.079007812 0.0076483302
-0.019854704 0.07909967 0.0078438753
-0.022029839 0.079328112 0.008191268
0.059689499 0.059359908 0.0092095071
0.05749495 0.060482904 0.0087977108
0.055426627 0.061126545 0.0083804727
0.052873075 0.061544925 0.0073552439
0.050620798 0.062665902 0.0070570121
-0.013217178 0.076445594 0.0063254144
-0.01572396 0.076722689 0.0063059572
-0.018160293 0.076728411 0.0062962854
-0.020631267 0.07717374 0.0070407549
-0.022915937 0.077758364 0.0076592248
-0.025261285 0.077832833 0.0080643967
-0.027590495 0.077714168 0.0082262727
0.063780732 0.05572347 0.0093529886
0.062015474 0.056797188 0.0091833668
0.059512604 0.057403792 0.0083483132
0.057182401 0.058014087 0.0076095788
0.055152647 0.05903624 0.0072019827
0.053318702 0.059976086 0.0071618669
-0.019210469 0.075413264 0.0063383244
-0.020893164 0.075463727 0.0063300123
-0.023550788 0.075330094 0.0063958149
-0.025934193 0.075545914 0.0068912683
-0.028198216 0.076186217 0.0077772029
-0.030439653 0.076286048 0.0082653034
0.065726094 0.053211287 0.0094486782
0.063812301 0.053906117 0.0089999596
0.061711289 0.054530211 0.0082194218
0.05945529 0.055148233 0.0076052649
0.057477228 0.05601377 0.007317041
-0.024992501 0.073566683 0.0063806241
-0.02681523 0.073441759 0.0063779363
-0.028914198 0.073982328 0.006817746
-0.031301301 0.074163221 0.0074897585
-0.033405069 0.074484475 0.008205777
0.069628775 0.049138088 0.0096067498
0.068196505 0.050019518 0.0094273109
0.065934047 0.051208656 0.0088943727
0.063431688 0.051593624 0.0078288019
0.061508987 0.052539956 0.0074545816
-0.029354971 0.071879543 0.0064228661
-0.031835005 0.071907863 0.0065790052
-0.034317769 0.072608434 0.0076095518
-0.036510356 0.072552428 0.0080997767
-0.038639978 0.072436422 0.0083684837
0.072082914 0.046326898 0.0097149117
0.070111781 0.047363356 0.0095597198
0.067911498 0.047951482 0.0084591387
0.065711603 0.048648361 0.0078383321
0.06360133 0.049837988 0.0075575067
-0.03277107 0.070298709 0.0064650355
-0.035050962 0.070042618 0.0064651649
-0.037340757 0.07038673 0.0069778198
-0.0397975 0.0708175 0.0079204617
-0.042201426 0.070651308 0.0084172646
0.072033383 0.044434872 0.0093192887
0.069840096 0.045250222 0.0084354505
0.067915857 0.045739397 0.0078610368
0.066216759 0.046460535 0.007686168
-0.037816755 0.068295427 0.006515706
-0.040232319 0.068573065 0.0068968004
-0.042685896 0.069044895 0.0078713652
-0.04457245 0.068916887 0.0082187364
0.075375073 0.040285498 0.009939664
0.07398355 0.041492991 0.0095583424
0.07185223 0.042182114 0.0084739411
0.069572553 0.043246053 0.0078119924
-0.041372877 0.066539206 0.0065635135
-0.043285102 0.066624798 0.0068865884
-0.045528073 0.067202069 0.0079249972
-0.048131969 0.067183271 0.0085158674
-0.050880589 0.067539386 0.0084926905
0.075860746 0.03850672 0.0098927896
0.073787548 0.038987219 0.0084780892
0.072043113 0.040091719 0.0079322727
-0.042229909 0.064926587 0.0066167414
-0.044040564 0.064457156 0.0066261822
-0.046296109 0.064641304 0.0070112012
-0.048664067 0.065256029 0.0076717651
-0.051142074 0.065684363 0.0081929034
-0.052885778 0.065295838 0.0085636061
0.07756643 0.035419825 0.0095629962
0.075700797 0.036336496 0.0088644326
0.073922202 0.036870949 0.0080525493
-0.046762586 0.062621757 0.0066799698
-0.049150094 0.062790759 0.0070650196
-0.051540636 0.063346021 0.0078510465
-0.053775806 0.063683584 0.0083665671
-0.055465579 0.063937567 0.0086012315
0.079347201 0.032420911 0.010231022
0.077572912 0.033241171 0.0091177542
0.075362712 0.033999983 0.0081588905
-0.050300274 0.060599692 0.0067371763
-0.052166451 0.060815122 0.007167059
-0.05449884 0.061394196 0.007979501
-0.05697035 0.061892688 0.008667117
0.080654494 0.029243445 0.010347573
0.079325311 0.030318091 0.0096042687
0.077285931 0.031163251 0.0084882295
-0.05116247 0.059134685 0.0067852018
-0.052864484 0.058823802 0.0067895204
-0.055099297 0.059089199 0.0075219832
-0.057664473 0.059483703 0.0084987814
-0.059398141 0.05981534 0.0087305568
0.079028293 0.028458191 0.0086677345
0.077225715 0.029500486 0.0083239814
-0.05384222 0.05739715 0.0068357419
-0.055805296 0.05689352 0.0070125554
-0.058190916 0.056996442 0.0078923926
-0.060101721 0.05744452 0.0086442204
0.082555994 0.023540085 0.010221517
0.080941364 0.024349796 0.0095197624
-0.056678906 0.054923672 0.0069114929
-0.058477234 0.054693349 0.0070237732
-0.060902745 0.0551024 0.0082425987
-0.063216932 0.055033203 0.0088834893
-0.065024622 0.054909274 0.0088808015
0.082680412 0.022024421 0.0099416124
0.080756553 0.022594489 0.0085800039
-0.059292261 0.05259499 0.0069830269
-0.061195258 0.052757543 0.0073868567
-0.063839637 0.05323036 0.0081104692
-0.066087849 0.053218596 0.0079353657
0.084125973 0.018978242 0.00992072
0.082309663 0.01951652 0.0091943257
0.080732435 0.020676363 0.0086471895
-0.062013201 0.050390981 0.0071212249
-0.064427339 0.050687011 0.0080931745
-0.066167839 0.051337883 0.0090016592
0.085389279 0.015647033 0.010842982
0.084110364 0.016547438 0.010222726
0.082109615 0.016992785 0.0090319403
-0.063233458 0.048010185 0.0071285618
-0.065165363 0.048210397 0.0076976893
-0.067302071 0.04884338 0.0088538425
-0.069501832 0.048232697 0.0090976264
0.085531369 0.013612476 0.010771983
0.083459929 0.014266914 0.0095497277
0.081843026 0.015054827 0.0088487249
-0.063873202 0.046453845 0.0071806712
-0.06573566 0.046051394 0.0075210799
-0.068158761 0.046457302 0.008748237
0.085474528 0.011174097 0.010538425
0.083365843 0.011832462 0.0091344612
-0.066299781 0.043751597 0.0074328119
-0.068512149 0.043930288 0.008501946
0.086909689 0.0084568495 0.011101146
0.085328601 0.0086811772 0.010300923
0.083348341 0.0091184881 0.0090628304
-0.067114234 0.041181549 0.0073530385
-0.069123685 0.041589495 0.0083315345
-0.071067326 0.041708276 0.0091775078
0.086338907 0.0058336393 0.010815713
0.084539197 0.0063844947 0.0094969068
0.083297648 0.0074367868 0.0091216387
-0.069582008 0.039255787 0.0077748671
-0.071912237 0.039613448 0.0089737382
-0.07371565 0.039211191 0.0093977517
0.086191356 0.00366122 0.011044218
0.084539309 0.0038373559 0.010110422
-0.070264764 0.037236236 0.0074791992
-0.072320797 0.037118901 0.0083179679
-0.074614249 0.037626691 0.0093386667
-0.076373264 0.03748804 0.0094478689
0.087388612 -3.7584607e-05 0.011401013
0.085895076 0.00098435942 0.010825702
0.084413722 0.0021215067 0.011313704
-0.072811522 0.034497172 0.0078989333
-0.075113125 0.03524287 0.0093314247
-0.076528899 0.036758158 0.0094728665
0.086999573 -0.0018621185 0.011463515
0.085451357 -0.001502757 0.01019408
-0.073649496 0.032371085 0.0079702977
-0.075702667 0.032779742 0.0091153681
0.086610511 -0.0036867028 0.011526003
0.085069276 -0.0035650705 0.010014798
-0.074460603 0.030013068 0.0077162962
-0.076304734 0.03023321 0.0090772975
-0.078044415 0.030366756 0.009691217
-0.0752621 0.027337203 0.0078070816
-0.076944418 0.027692625 0.0089554554
-0.078761481 0.028077949 0.0097687254
0.086104326 -0.010085395 0.0097472807
-0.076022558 0.02557583 0.0078658955
-0.077490963 0.025582766 0.0090425303
-0.079006866 0.026032085 0.0098395385
0.085626967 -0.011899489 0.010184292
0.083714269 -0.012269276 0.0098145967
-0.076807141 0.021896264 0.0079919407
-0.078116857 0.022856677 0.009168203
-0.079703167 0.02306488 0.0099409334
0.086544752 -0.014735486 0.011913369
0.084993757 -0.014442609 0.010646283
0.083400436 -0.013741113 0.0098650204
-0.07877256 0.020408403 0.0086201867
-0.080317691 0.020779656 0.010018718
0.086155705 -0.016560076 0.011975872
0.084506065 -0.016636038 0.010804714
-0.079318583 0.01821572 0.0085282149
-0.080784544 0.018590184 0.010093712
0.085377589 -0.020209251 0.012100878
0.084073119 -0.019332901 0.01099293
-0.079963699 0.015516087 0.0082035186
-0.08127439 0.015990485 0.0095159402
0.085353673 -0.022111511 0.012167509
0.083484434 -0.02180597 0.010648583
-0.078925543 0.011961439 0.0083322367
-0.080376349 0.013070325 0.0087880148
-0.082167208 0.013448427 0.010268729
0.085251927 -0.024378708 0.012246664
0.08301466 -0.02400915 0.01072403
-0.079239376 0.010489661 0.0083826454
-0.080846138 0.010867149 0.0088634752
-0.082705878 0.011369619 0.010339559
0.084323309 -0.026687924 0.012324057
0.082449794 -0.026456513 0.011308028
0.080636851 -0.026871612 0.011815867
-0.079788595 0.0079139611 0.0084708799
-0.081394225 0.0082968185 0.0089515001
-0.083329841 0.0088178059 0.010259883
0.083587952 -0.028602248 0.012388361
0.081783324 -0.028695229 0.012184489
-0.080074653 0.0051283953 0.008567499
-0.081825279 0.0057248571 0.0092902547
-0.084118247 0.0062519927 0.010422649
0.082809843 -0.032251425 0.012513365
0.08122465 -0.031497657 0.010979815
-0.080440402 0.0030521618 0.0086389296
-0.082176179 0.0035249908 0.0096162092
-0.084223188 0.0042537698 0.010583307
0.082342982 -0.034440894 0.012588358
0.080872871 -0.033775978 0.011625404
0.079163656 -0.033610709 0.010545625
-0.081279308 0.00092280825 0.0087103564
-0.082545638 0.00096480345 0.01007984
-0.084268063 0.0016565506 0.010674243
0.081876129 -0.036630366 0.01266335
0.08040078 -0.036225054 0.012143078
0.078306861 -0.035904631 0.01093066
0.076248489 -0.036452156 0.010633976
-0.081828527 -0.0016528898 0.0087985918
-0.083071947 -0.0015959148 0.010209298
-0.084842652 -0.0013365624 0.010777025
0.081487067 -0.038454954 0.012725853
0.079970941 -0.038528323 0.012611364
0.077678323 -0.038227726 0.011202135
-0.082009569 -0.0043069683 0.0088910041
-0.083619848 -0.0037959293 0.010117577
-0.085349023 -0.0031742756 0.010839523
0.082899719 -0.04257039 0.012875735
0.079289146 -0.04088638 0.012802615
0.076976605 -0.04064586 0.01209728
0.074837632 -0.041180212 0.01146144
-0.082480326 -0.0065146922 0.0089666247
-0.084312178 -0.0059770797 0.009486434
-0.086124808 -0.0054401085 0.0096652163
0.07812915 -0.043462399 0.012888468
0.076668665 -0.043151546 0.012871898
0.074477889 -0.042685281 0.012847022
-0.082371749 -0.0093061952 0.0092793545
-0.084467046 -0.0086283907 0.0095333215
0.077923268 -0.045860019 0.012971793
0.075954802 -0.045388378 0.01276566
0.073632896 -0.044902008 0.011820822
-0.080856718 -0.012437719 0.009180719
-0.082733743 -0.01167907 0.010147428
-0.084375702 -0.010782095 0.011110217
0.077847853 -0.048361737 0.013059269
0.075336486 -0.047871586 0.01278215
0.073073514 -0.047498353 0.011554929
0.071528815 -0.047756542 0.011012212
-0.081359871 -0.01476375 0.009799175
-0.083192073 -0.013934337 0.010917508
0.074893065 -0.05036778 0.012936226
0.072471648 -0.050039973 0.011914683
0.070838757 -0.049789399 0.011080873
-0.081571326 -0.017152987 0.010108509
-0.08327429 -0.016357174 0.011310079
0.072215468 -0.052270778 0.01242403
0.069903269 -0.05209738 0.01128327
-0.080213673 -0.02029823 0.0096257674
-0.082000077 -0.019348344 0.010573289
0.071462922 -0.054737445 0.012334482
0.068939053 -0.054324586 0.011766219
0.06701427 -0.054488778 0.01123085
-0.078701943 -0.023089701 0.0095627969
-0.080352321 -0.022549229 0.010071068
-0.082290441 -0.021959201 0.011260281
0.070931308 -0.057318039 0.013073687
0.068482377 -0.056734521 0.012315967
0.066262156 -0.056498714 0.011631987
0.06417758 -0.056962255 0.011306602
-0.078569204 -0.025557399 0.0097499602
-0.080480643 -0.025047187 0.010702156
-0.082422279 -0.024295211 0.011591886
0.067912281 -0.059236094 0.013318769
0.065622531 -0.058695268 0.012373663
0.063337803 -0.058322106 0.011351052
-0.078650452 -0.028133018 0.010311694
-0.080574922 -0.027277198 0.011503545
0.067355126 -0.061768916 0.013488841
0.064935848 -0.060974713 0.013022748
0.062636293 -0.060894821 0.012105674
-0.077325769 -0.031075718 0.0098483237
-0.078938827 -0.030285822 0.01052904
0.064631663 -0.062905908 0.013518141
0.062151939 -0.062971093 0.013427387
0.060396552 -0.062742762 0.012828874
-0.075525165 -0.034664448 0.0099812141
-0.077207834 -0.033558521 0.010102668
-0.079158641 -0.032890324 0.010450632
0.061596941 -0.065502547 0.013597435
0.05913138 -0.065112554 0.012859437
-0.07408464 -0.037535362 0.010087539
-0.075545602 -0.036323711 0.01053967
-0.077688739 -0.035752594 0.011678713
0.058482502 -0.067251869 0.012789038
0.056255504 -0.067369871 0.012141271
-0.073959902 -0.039356995 0.010151958
-0.075786762 -0.038770981 0.011312532
-0.077252544 -0.038238537 0.012101156
0.055504106 -0.069308065 0.012783612
0.053267319 -0.069139585 0.011802579
-0.070028722 -0.043783844 0.010322528
-0.072037637 -0.042558212 0.010371788
-0.074005239 -0.041653018 0.011002048
-0.075997792 -0.041269921 0.011878825
-0.077952839 -0.041522771 0.012213654
0.052768528 -0.071399868 0.012678378
0.050827101 -0.07119938 0.01175418
-0.068290457 -0.046461705 0.010423231
-0.069878802 -0.045419473 0.010680669
-0.072311334 -0.044769052 0.011615685
-0.074541971 -0.04401378 0.01214753
-0.076504298 -0.042784788 0.012263547
0.052097771 -0.073422849 0.012504199
0.049945928 -0.073165908 0.01181976
0.048123188 -0.073290825 0.011817028
-0.068106666 -0.048500769 0.010870713
-0.070048273 -0.047667075 0.01158441
-0.072429404 -0.047025919 0.012337235
-0.074349433 -0.046104461 0.012388396
0.049360007 -0.075575061 0.012402273
0.046852015 -0.075149737 0.012277559
0.044230293 -0.075603589 0.01188304
-0.066342294 -0.051336233 0.010824176
-0.068113081 -0.05062905 0.011904276
-0.070310533 -0.049768906 0.012407581
-0.071895286 -0.048915647 0.012496558
0.046279617 -0.077554196 0.013460401
0.043823835 -0.077232845 0.013247137
0.041537248 -0.077222936 0.011929384
0.03985453 -0.077172533 0.011921071
-0.062496271 -0.055388048 0.010758921
-0.064218044 -0.054710384 0.010895246
-0.066402368 -0.053468194 0.011810421
-0.068571247 -0.052420665 0.012632442
0.040898919 -0.07900922 0.012906821
0.03856688 -0.078654476 0.012198954
0.036438428 -0.078753375 0.011963255
-0.06038985 -0.05814435 0.010863802
-0.062099319 -0.057376936 0.011194116
-0.064206123 -0.056504436 0.012104762
-0.065816872 -0.05566068 0.012423289
0.037727341 -0.080842391 0.012827746
0.035353724 -0.080518745 0.012111961
0.033075459 -0.08080706 0.012022222
0.031392749 -0.080756657 0.012013926
-0.05623132 -0.062106673 0.011018976
-0.057844847 -0.061250377 0.010982676
-0.059982631 -0.060091726 0.011333968
-0.062482204 -0.059484925 0.012403668
-0.064548828 -0.058617465 0.012865487
0.034748267 -0.082691625 0.012984301
0.0325495 -0.082381643 0.01252016
0.030090295 -0.08217191 0.012058514
0.027608484 -0.082259119 0.012051917
-0.05357809 -0.06482546 0.011124677
-0.055874944 -0.063772276 0.011203877
-0.058179088 -0.063045345 0.011891064
-0.060467396 -0.062588848 0.012520383
-0.062832907 -0.061907317 0.012987577
0.029430579 -0.084315933 0.012819125
0.026970433 -0.083778493 0.012202821
0.024770588 -0.083655305 0.012089864
0.023087874 -0.083604895 0.012081553
-0.049809471 -0.068089344 0.011253833
-0.051482588 -0.067352742 0.011555021
-0.053713601 -0.066552274 0.011756497
-0.056121904 -0.065995932 0.012442377
-0.058408894 -0.065248758 0.01273716
0.026306434 -0.086007677 0.012997058
0.024188403 -0.085509166 0.012819753
0.021665247 -0.085149705 0.012530449
0.019158747 -0.084884234 0.012111164
0.017462755 -0.084715597 0.012098654
-0.047804795 -0.070728339 0.011604383
-0.049297426 -0.069931403 0.011820749
-0.051585928 -0.069433093 0.012525617
-0.054025207 -0.068782948 0.013151824
0.018578792 -0.086616784 0.01283677
0.016349455 -0.086304136 0.012400183
0.013794371 -0.086396597 0.012143374
0.011167707 -0.086260639 0.012128382
0.0094717219 -0.086091988 0.012115872
-0.040420529 -0.075319022 0.011543968
-0.042762931 -0.074301153 0.011499177
-0.044960324 -0.073379278 0.011920112
-0.047271114 -0.072726697 0.012360289
0.01576666 -0.088096991 0.012961161
0.013003493 -0.088404849 0.012595623
0.010595663 -0.088052839 0.012689334
0.0083912108 -0.087583661 0.012664315
0.0058754059 -0.087270275 0.012500559
0.0032510201 -0.086878508 0.012369444
0.0011245704 -0.086431004 0.01209532
-0.00093958236 -0.086183988 0.012078634
-0.029288536 -0.080150127 0.011756738
-0.03076121 -0.079836674 0.011739998
-0.03354698 -0.079068363 0.011924594
-0.03587408 -0.078473136 0.011972499
-0.038066227 -0.077830531 0.012026119
-0.040621161 -0.077195548 0.011809149
0.0027045074 -0.08874359 0.013083148
0.00060519204 -0.088127606 0.01290327
-0.0019816677 -0.087628022 0.012750628
-0.0045180763 -0.087225333 0.012647056
-0.0068006767 -0.087185211 0.012466195
-0.0094315708 -0.08629977 0.012049702
-0.011877179 -0.085856192 0.012024612
-0.013559891 -0.085805789 0.012016301
-0.016873406 -0.085100524 0.01197867
-0.019172957 -0.084281407 0.011941019
-0.021581141 -0.083713904 0.011911745
-0.02400052 -0.083304584 0.012030902
-0.026360694 -0.082509369 0.012117716
-0.028819343 -0.081966907 0.012322581
-0.031272255 -0.081426375 0.012527605
-0.033697471 -0.080903493 0.012584711
-0.0096600866 -0.087581016 0.012594047
-0.012231941 -0.087033615 0.012564835
-0.014468637 -0.086627156 0.012375128
0.02947603 0.073025681 0.0056107352
0.027112441 0.073721886 0.0055771284
0.025118535 0.07433939 0.0055477154
0.022530703 0.074890167 0.0055183303
0.019942885 0.075440988 0.0054889452
0.017724749 0.075913124 0.0054637538
0.015284104 0.076377399 0.0054379785
0.012470312 0.07664524 0.0054176506
0.010252167 0.077117324 0.0053924592
0.0084037185 0.077510752 0.0053714765
0.038794663 0.068879358 0.0057924418
0.036475915 0.069604613 0.0057579735
0.034224447 0.07037352 0.0057222471
0.032118417 0.070918314 0.0056949528
0.029528638 0.071514897 0.0054971753
0.02693633 0.072112054 0.0052993819
0.024715142 0.072584763 0.0052741589
0.022120195 0.07316009 0.0051605208
0.019516023 0.073783182 0.0048783636
0.017291805 0.074256606 0.0048531089
0.01483377 0.074766755 0.0051288949
0.012255834 0.07517755 0.0050680377
0.0099370321 0.075639419 0.0054430971
0.0073492127 0.076190248 0.0054136971
0.0048341029 0.076628953 0.0053885272
0.0025965732 0.07673829 0.0053760055
0.00016753562 0.076946311 0.0053592483
0.0477545 0.064500347 0.0059808819
0.045712113 0.065192558 0.005948659
0.043397006 0.065814041 0.0059178621
0.041188605 0.066348962 0.0056403549
0.038605358 0.066964477 0.005358587
0.036016934 0.06758187 0.0050767064
0.03379257 0.068077713 0.0049672807
0.031567305 0.068596222 0.004773682
0.028968824 0.069149263 0.0047441861
0.026370352 0.069702357 0.0047146743
0.024143077 0.07017637 0.0046893889
0.021684568 0.070865892 0.0046556368
0.019025233 0.071653508 0.0046176603
0.016797967 0.072127573 0.0045923591
0.014491601 0.072230645 0.0045797927
0.011893114 0.072783679 0.0045502968
0.0092946524 0.073336773 0.004520786
0.0070673665 0.073810793 0.0044954997
0.0044897548 0.074308991 0.0046556108
0.0019209347 0.074794583 0.0048578698
-0.00029193712 0.075243436 0.0049168961
-0.0027526366 0.075765721 0.0051892027
-0.0052626561 0.076336361 0.0053595463
-0.0074747251 0.07644853 0.005347007
-0.0091777286 0.076617844 0.0053344397
0.0519302 0.060521632 0.0061367052
0.050127208 0.06158134 0.0060925214
0.048110958 0.062534958 0.0058844658
0.045544039 0.06318146 0.0054557472
0.0429594 0.06377963 0.0052370969
0.040665049 0.063945018 0.0049722167
0.038316064 0.064888194 0.0049299998
0.035626296 0.065793097 0.0048877681
0.033399034 0.06626717 0.0048624668
0.031171774 0.066741243 0.0048371805
0.02857329 0.067294285 0.0048076836
0.025974819 0.067847379 0.0047781728
0.023747543 0.068321399 0.0047528865
0.0063006226 0.072034828 0.0045547737
0.0040733651 0.072508901 0.0045294864
0.0012631132 0.072796762 0.0045084776
-0.00098362716 0.072906509 0.0044959122
-0.0032400477 0.07341896 0.0045692213
-0.0056961006 0.074036755 0.0047714673
-0.0081199221 0.074503191 0.0052459687
-0.010680709 0.075006545 0.0053851334
-0.013241862 0.075319946 0.0053641908
-0.015492713 0.075547963 0.0053474242
-0.017716911 0.075538531 0.0053391149
0.05626348 0.057281904 0.0062672095
0.054699853 0.057923652 0.0062386272
0.052361179 0.058904979 0.0061117113
0.049807876 0.059562664 0.005606194
0.047614619 0.060138833 0.005132759
0.045196258 0.060808677 0.0050998554
0.042575885 0.061986975 0.0050483104
-0.0019694574 0.071468025 0.0045425193
-0.0038072392 0.071342111 0.0045398008
-0.0062109907 0.071595125 0.0045216111
-0.0088094659 0.072148219 0.0044920854
-0.011036721 0.072622292 0.0044667991
-0.013588773 0.073103771 0.0046901414
-0.016124941 0.073568821 0.0049696723
-0.018625978 0.073993914 0.0053897658
-0.021153197 0.074311092 0.0053688111
-0.023219813 0.0741992 0.005364703
0.058378603 0.05451424 0.0063725365
0.056481238 0.055349845 0.0061357105
0.054453142 0.055889666 0.005641955
0.051976681 0.056573171 0.0052748295
0.04947982 0.057511806 0.005232173
0.047444247 0.058429852 0.0051920312
-0.0071237865 0.07004419 0.0045724353
-0.0093449596 0.07015682 0.0045598689
-0.011617267 0.070263684 0.0045472905
-0.014188973 0.070578344 0.0045262724
-0.016787449 0.071131378 0.0044967616
-0.019078286 0.071672022 0.0046228152
-0.021586411 0.071950197 0.0049830098
-0.023904637 0.072799996 0.0054111471
-0.026069432 0.072797261 0.0054028248
0.0625543 0.050535534 0.0065283449
0.06091122 0.051395308 0.0063667074
0.058702312 0.052664522 0.0061051585
0.05625394 0.053002723 0.0055167712
0.054231554 0.053559408 0.0053892964
-0.015180865 0.068656392 0.0045897868
-0.01740204 0.06876903 0.0045772353
-0.019568456 0.069008522 0.0045604138
-0.022166947 0.069561563 0.0045309179
-0.024590446 0.070370853 0.0049100081
-0.02705879 0.070781238 0.005407148
-0.029649969 0.070712142 0.0054620532
-0.031346895 0.070521556 0.005462138
0.064598717 0.04804042 0.0066238353
0.062866427 0.048827522 0.0065894891
0.060478956 0.049590599 0.0058029955
0.057911236 0.050190642 0.0055217976
0.055988222 0.051181655 0.0054795351
-0.02062731 0.067682534 0.0046027871
-0.022783579 0.067882895 0.0045873895
-0.025240079 0.067888618 0.0045776563
-0.027575312 0.068441704 0.0046492303
-0.030019794 0.068700038 0.0051673213
-0.03232868 0.069088988 0.0055085747
-0.034231663 0.06907557 0.0055016484
0.066699713 0.045327295 0.0067271926
0.06473878 0.046230242 0.006576702
0.062590145 0.046799593 0.0059924722
0.060358938 0.047515027 0.0056251856
0.058337219 0.048548631 0.005581039
-0.026298914 0.06656269 0.0046200296
-0.027995519 0.066613525 0.0046116635
-0.030169236 0.066610776 0.0046033161
-0.032701127 0.067098521 0.0048265224
-0.035122421 0.067484789 0.0054428028
-0.037377905 0.067611665 0.0055407742
0.069184527 0.042480934 0.0068367133
0.06683208 0.043153081 0.006303682
0.064383514 0.043859154 0.0058600567
0.0624591 0.044827189 0.0057276385
0.060832273 0.045690592 0.0056910077
-0.031228099 0.065284789 0.0046456903
-0.033613581 0.065016851 0.0046458449
-0.035896763 0.065098621 0.0047175037
-0.038237009 0.065561689 0.005275826
-0.040546652 0.066042244 0.0055835228
0.072336003 0.038411189 0.0069917338
0.070885696 0.039597891 0.0068332655
0.06896469 0.040392015 0.0063254545
0.066689521 0.040856466 0.0058833985
0.064653948 0.041774508 0.0058432417
-0.036540639 0.06311895 0.0047010174
-0.038788579 0.063152134 0.004791216
-0.041130468 0.063714653 0.0052626505
-0.043395072 0.063558511 0.0056595774
0.072807401 0.036594253 0.0070573231
0.070648469 0.037338398 0.0063557252
0.068775818 0.038053066 0.0059898403
-0.039565094 0.061371002 0.0047505824
-0.041860946 0.061413072 0.0047402335
-0.044164792 0.061718546 0.0053875726
-0.046431351 0.061855111 0.0057075405
0.074391313 0.033377491 0.0069261538
0.072620302 0.034274194 0.0065376125
0.07034082 0.035231397 0.0060949335
0.068901606 0.036216419 0.0060547609
-0.043009408 0.059777133 0.0047931103
-0.044972237 0.059395712 0.0047989059
-0.047240041 0.059753157 0.0053778877
-0.049297944 0.060282949 0.0057515576
0.076239027 0.030434985 0.0072867321
0.074463055 0.031384077 0.0067795785
0.072423071 0.032105695 0.0062126582
-0.04614339 0.057212222 0.0048709121
-0.047874223 0.057376478 0.0050403811
-0.050143961 0.057834815 0.005619728
-0.052364524 0.057742681 0.0058287475
0.080638953 0.026601635 0.0074383188
0.078596562 0.027293848 0.007406095
0.076421 0.028317438 0.0070282007
0.074430272 0.02893129 0.0063318647
-0.048376705 0.055231281 0.0049317526
-0.050507806 0.055489656 0.0050144782
-0.052870203 0.055757392 0.0056235446
-0.054837171 0.056054529 0.0058783777
0.080402613 0.025493225 0.0074762898
0.078365177 0.02534646 0.0072591072
0.075991198 0.025787262 0.006448241
0.074443452 0.02702162 0.0063988762
-0.051182073 0.053145867 0.0049940133
-0.053539474 0.053348437 0.0050402945
-0.05600569 0.053967871 0.0057802545
-0.058097705 0.053813037 0.0059443126
0.079872951 0.022284245 0.0075868284
0.078103662 0.022793379 0.00699032
0.076037869 0.023579607 0.006525822
-0.054368775 0.050990764 0.005057239
-0.056901187 0.051604033 0.0055595357
-0.059012823 0.051786914 0.0060118465
0.079545967 0.019850263 0.007307061
0.077490285 0.020684913 0.0066330517
-0.055478349 0.048921466 0.00512549
-0.05728412 0.04917844 0.0052095521
-0.059595171 0.049445782 0.0059097717
-0.061340023 0.049481969 0.006083658
0.080966294 0.017262088 0.0077672498
0.07935679 0.017736902 0.0071075857
0.077616066 0.018848266 0.0066979574
-0.057736013 0.04697803 0.0051849233
-0.060040802 0.047314543 0.0057478482
-0.062284566 0.047641426 0.0061445655
0.080994852 0.014405996 0.0077674938
0.07931149 0.015152059 0.0068342462
-0.058527101 0.045239575 0.0052428069
-0.060628172 0.04497686 0.0053978134
-0.062890835 0.045078635 0.0060891705
-0.064582333 0.045150906 0.0062230034
0.082226932 0.011393257 0.0079780454
0.080713943 0.011949813 0.0073967623
0.079178043 0.012827594 0.0069152499
-0.061515015 0.042449649 0.0053290734
-0.063432537 0.042632286 0.0057321424
-0.065382309 0.042849183 0.0063006636
0.082114391 0.0091825128 0.0080551719
0.080442816 0.0098112337 0.0070260232
-0.064121768 0.040547837 0.005476648
-0.066194385 0.040762533 0.006370686
0.082080022 0.0067102616 0.0076799458
0.080417879 0.0072374349 0.0071162032
-0.065234929 0.038393479 0.0054569449
-0.067221493 0.038562384 0.0060150465
-0.069115512 0.038390864 0.0064425413
0.083598986 0.0035751977 0.0081147095
0.081953757 0.004335084 0.0075575467
-0.066133812 0.036257774 0.0055283401
-0.06798923 0.036160801 0.0058324365
-0.069962777 0.03625818 0.0064028734
0.083359972 0.0012510971 0.0077924663
0.081571735 0.0019112614 0.0073075267
-0.068622716 0.033684887 0.0056089377
-0.070534319 0.034066327 0.0063385842
0.082939364 -0.00091902207 0.0081626093
0.081243135 -0.00053973327 0.0073922398
-0.069243431 0.031683862 0.0056767222
-0.071112446 0.031875622 0.0061630383
-0.07275176 0.032212406 0.0066451617
0.086166382 -0.0054743667 0.0085851289
0.084542178 -0.0049355067 0.0085599087
0.082439348 -0.0035163602 0.0080016367
0.080689378 -0.0031367217 0.0074811941
-0.070022337 0.02894094 0.0057699168
-0.071718283 0.02929654 0.0061260937
-0.073602229 0.029432192 0.0067393854
0.086108424 -0.0071998723 0.0081451274
0.084372483 -0.0066375318 0.0086189779
0.082088023 -0.0060791904 0.0076808622
-0.072150618 0.026756138 0.0059383838
-0.074074529 0.026990062 0.0065730745
0.086196713 -0.0089570014 0.0087074144
0.083899789 -0.0088543575 0.0086949049
0.082000837 -0.0083607407 0.0076695932
-0.072725087 0.024585171 0.0059122592
-0.074877843 0.024936611 0.0064752186
-0.077072822 0.024634687 0.0068942122
0.083231933 -0.011261453 0.0087767523
0.081705712 -0.011109717 0.0077648927
-0.073460534 0.02191603 0.0060030418
-0.075521678 0.0223621 0.0063545983
-0.077309169 0.023526274 0.0069321832
0.082563072 -0.014087637 0.0088732913
0.081151962 -0.013706706 0.0078538321
-0.074014291 0.019319041 0.0060919812
-0.076019295 0.019760687 0.006569
-0.077648513 0.020122336 0.0070502749
0.082346961 -0.016253486 0.0088372407
0.080677308 -0.015932687 0.0079300804
-0.074860141 0.01717208 0.0061639911
-0.076492965 0.017539252 0.0066450881
-0.07812123 0.017905455 0.0071262177
0.083408967 -0.018406 0.0090280855
0.081917048 -0.018768946 0.0087620858
0.080202661 -0.018158669 0.0080063296
-0.075334795 0.014946099 0.0062402394
-0.077117607 0.015129284 0.0067272093
-0.078955807 0.015544929 0.0072057825
0.081259519 -0.021294219 0.0087207984
0.08002013 -0.020834623 0.0080994787
-0.075888544 0.01234911 0.0063291937
-0.077447206 0.012545645 0.0068165669
-0.079145402 0.013102255 0.0072907396
0.08081504 -0.023671275 0.0088691907
0.079466365 -0.023431608 0.0081884479
-0.076442286 0.0097521804 0.006418162
-0.077959783 0.010128417 0.0071495287
0.080277212 -0.025784222 0.0088995341
0.078991726 -0.025657592 0.0082646813
-0.076916926 0.0075261979 0.0064944113
-0.078432962 0.0079093184 0.0072255442
0.081328563 -0.029257646 0.008400077
0.079922818 -0.028570609 0.0083705485
0.078437977 -0.028254582 0.0083536506
-0.077470683 0.0049292096 0.0065833647
-0.078820109 0.0053923284 0.007276603
0.080950543 -0.031143794 0.0094653992
0.079259098 -0.031086644 0.0090120835
0.07765907 -0.030997504 0.0084468452
-0.078024447 0.0023322213 0.00667232
-0.079306178 0.0026503974 0.0071009174
0.07851135 -0.033089232 0.0095241768
0.077038392 -0.032998476 0.0085146436
-0.078340866 0.00084825396 0.0067231422
-0.080239728 0.00050455303 0.0069780024
-0.082211189 0.00089634111 0.0067064147
0.07756681 -0.034929778 0.0095850695
0.076438971 -0.035401691 0.008739572
-0.078985885 -0.0030867122 0.0068586934
-0.080619618 -0.0020796738 0.0074424008
0.075541146 -0.038139515 0.0091894725
-0.079217561 -0.0053471983 0.0070621939
-0.080817305 -0.00463206 0.0076562585
0.074944213 -0.040158406 0.009132917
-0.079594955 -0.0073811547 0.0072571607
-0.081472471 -0.0068734032 0.0079824924
-0.078328617 -0.010013714 0.0071042608
-0.080045827 -0.009864971 0.0076927477
-0.081496693 -0.0087994356 0.0080499761
0.072650887 -0.044475343 0.0089002214
0.071399771 -0.045379974 0.0092129791
-0.078487903 -0.012925204 0.0073725898
-0.080027483 -0.012193146 0.0078888563
0.07072828 -0.047002316 0.0095271962
0.068969235 -0.047182232 0.0089808665
-0.07728795 -0.016052715 0.0073201768
-0.07887467 -0.015253568 0.0077029159
-0.080381513 -0.014444203 0.0082523413
0.069736362 -0.049367685 0.0098610241
0.068245076 -0.049122438 0.0090461308
-0.077418163 -0.018119274 0.0073921867
-0.079341806 -0.017727509 0.00810475
0.068755001 -0.051787123 0.010142209
0.067282677 -0.051528968 0.0093997261
-0.077240966 -0.020798961 0.0076298388
-0.079065248 -0.020252338 0.0083361436
0.066542029 -0.053781677 0.0099534113
0.065013751 -0.053903103 0.0092012724
-0.075821303 -0.023733724 0.0075953491
-0.077414967 -0.023273069 0.008156688
-0.078920878 -0.022093754 0.0085263848
0.065718733 -0.055453975 0.010259045
0.063994236 -0.0557524 0.010012664
-0.075984716 -0.026149634 0.0079018418
-0.077477738 -0.025269035 0.0084766187
0.062621318 -0.057573482 0.0099878218
0.061700657 -0.058589946 0.010353444
-0.074401326 -0.029207079 0.0077928808
-0.076240443 -0.028456086 0.0084264893
-0.077648148 -0.026999597 0.008703446
0.062203694 -0.059855759 0.010399817
0.060317725 -0.060158934 0.0097598778
0.058301598 -0.060812891 0.0094175935
-0.07280691 -0.032649089 0.0079198414
-0.074634179 -0.031452741 0.0081566805
-0.076583304 -0.030828126 0.0087168198
0.059598565 -0.062488608 0.0097816354
0.05743226 -0.06229005 0.0094660651
-0.07258597 -0.034650341 0.0081021115
-0.074766234 -0.033744972 0.0088603199
-0.076532975 -0.032644361 0.0089058122
0.05882442 -0.064479277 0.010423795
0.05663709 -0.06459339 0.010044076
0.054930307 -0.064490825 0.0095335273
-0.070786521 -0.037733108 0.0081060594
-0.072664067 -0.036969777 0.0086723417
-0.074351177 -0.036005571 0.0090322215
0.0556463 -0.066442437 0.010605403
0.05371261 -0.066423453 0.010025442
0.051522497 -0.067126721 0.0096127437
-0.069192111 -0.041175116 0.0082330061
-0.070963465 -0.039942652 0.0086117368
-0.072905257 -0.039192785 0.009006707
0.052743286 -0.068147056 0.01040377
0.050778482 -0.068589926 0.0099614002
0.048820585 -0.068878628 0.0096637057
-0.067660615 -0.043698862 0.0083275
-0.069199294 -0.042951018 0.0086591523
-0.071181394 -0.041989334 0.0091115199
0.049891163 -0.070534013 0.010635593
0.047858685 -0.070418194 0.0099363616
-0.065987088 -0.046769865 0.0084417555
-0.067418896 -0.045988552 0.0087089743
-0.068827972 -0.044841595 0.0093636839
0.048701055 -0.072431572 0.010788509
0.047014587 -0.07254824 0.010485878
0.04507779 -0.072615802 0.0098914644
0.043258533 -0.07312452 0.0097910417
-0.063650258 -0.050369915 0.0085771363
-0.065418974 -0.04896833 0.008752021
-0.067189761 -0.048138704 0.0093427785
0.046010219 -0.074176319 0.01083926
0.044313755 -0.074568935 0.010596274
0.041940689 -0.074518882 0.0099349283
0.039443005 -0.074639373 0.0098293601
-0.061526418 -0.053148936 0.0086828806
-0.063509032 -0.052012019 0.0089354971
-0.065359846 -0.050957877 0.00944879
0.041200653 -0.076120012 0.010788689
0.038659081 -0.076221384 0.010465507
0.036637839 -0.07581573 0.0099709155
0.034964141 -0.075625286 0.0098465243
-0.059844814 -0.05557533 0.0087745422
-0.061391339 -0.054980528 0.0091646034
-0.063537776 -0.053827371 0.009599424
-0.065369405 -0.052787632 0.0096558966
0.03751345 -0.07777527 0.010932487
0.035813183 -0.077898532 0.010630035
0.033818662 -0.077763192 0.010042176
-0.057306375 -0.058717705 0.0092281941
-0.059205808 -0.057575371 0.0093475124
-0.061122991 -0.057038885 0.0098215407
0.034822617 -0.079520009 0.010983239
0.032913499 -0.079377383 0.010606947
0.030546939 -0.079517998 0.01038286
0.028063308 -0.079780094 0.0099654729
-0.053171068 -0.062373683 0.0090390118
-0.055265859 -0.061150257 0.0093728183
-0.057180129 -0.060222816 0.0096150516
-0.059078582 -0.059533998 0.009917031
0.02970274 -0.081056744 0.011017262
0.027531996 -0.081175543 0.010679447
0.02537035 -0.081004471 0.010123045
0.023280192 -0.081282936 0.0099995974
-0.04910598 -0.065876208 0.0091776792
-0.051098756 -0.064922638 0.0092615727
-0.053131245 -0.063967757 0.0098733343
-0.055030156 -0.063022166 0.010055165
0.026483424 -0.082380049 0.011051162
0.024786487 -0.082570635 0.011051246
0.02210689 -0.082674608 0.010644236
0.019589312 -0.082634956 0.01028285
0.017608587 -0.082402796 0.01001684
-0.045126081 -0.069050275 0.0093045011
-0.046778072 -0.068507716 0.0094458293
-0.048781775 -0.0676746 0.0098138088
-0.050806098 -0.066156223 0.0099813854
0.020677499 -0.084234245 0.011093638
0.018917194 -0.08405 0.010913557
0.01682888 -0.083864696 0.010610905
0.014386107 -0.083853059 0.01038874
0.011632722 -0.084039643 0.010051028
0.009922714 -0.083869614 0.010038416
-0.038334735 -0.073598474 0.0094904695
-0.039904762 -0.072953999 0.0094617717
-0.042069793 -0.072073683 0.0097560091
-0.044341143 -0.070927843 0.0097736903
-0.046632595 -0.070405431 0.010046642
-0.048084788 -0.069598801 0.010312865
0.013621093 -0.08530733 0.011103858
0.011070866 -0.085326448 0.010719371
0.0089049265 -0.085031822 0.010519947
0.0064024199 -0.084748991 0.010255729
0.0035877971 -0.084460467 0.010034532
0.0012814254 -0.084357403 0.010021937
-0.00057462847 -0.083962351 0.010000859
-0.028786678 -0.07795769 0.0096805235
-0.030788777 -0.077337623 0.0096509811
-0.032790884 -0.076717563 0.0096214684
-0.035207439 -0.076009035 0.009837362
-0.037520517 -0.075111397 0.0099105854
-0.039907239 -0.074514329 0.010294749
-0.042078827 -0.073452108 0.010471399
-0.044121213 -0.072759897 0.010439175
0.0082717296 -0.086228706 0.011115386
0.0057546045 -0.085950464 0.011095838
0.0033869746 -0.085575283 0.011073477
0.00097066635 -0.085497759 0.010686127
-0.001287323 -0.085278355 0.010644647
-0.003866944 -0.085000701 0.010524808
-0.0064991419 -0.084540129 0.010248302
-0.0087894071 -0.084407009 0.010318064
-0.011384332 -0.083854698 0.010288615
-0.013979259 -0.083302379 0.010259137
-0.016203491 -0.082829006 0.010233881
-0.018577704 -0.082374446 0.010275415
-0.021122176 -0.081735924 0.010115789
-0.023644799 -0.081063561 0.010209729
-0.025940554 -0.080384798 0.010348517
-0.028349645 -0.079566464 0.01027748
-0.030788342 -0.078818321 0.01037003
-0.032770768 -0.078044973 0.010668718
-0.035260763 -0.07729432 0.0106327
-0.037939496 -0.07639306 0.010590677
-0.0052976934 -0.086430579 0.011069707
-0.0070006819 -0.086261213 0.011057154
-0.0089945858 -0.085643716 0.011027741
-0.011835746 -0.085193507 0.01100091
-0.014400535 -0.085169025 0.010990075
-0.016395295 -0.084620275 0.010963065
-0.018785905 -0.083714209 0.010921991
-0.021564038 -0.082968421 0.010885009
-0.023782169 -0.082496293 0.010859833
0.020892868 0.069964193 0.0036835475
0.019029206 0.070360854 0.0036623748
0.016420089 0.070916213 0.0036327532
0.03830744 0.063921146 0.0039632441
0.03577774 0.064848959 0.0039208634
0.033168614 0.065404311 0.0038912417
0.030932214 0.065880261 0.0038658455
0.028323093 0.066435628 0.0038362229
0.025713975 0.066990979 0.0038065864
0.023477565 0.06746693 0.003781205
0.021320609 0.068315469 0.0037430646
0.01871147 0.068870768 0.0037134727
0.016102355 0.069426119 0.0036838055
0.013865961 0.069902129 0.0036584092
0.011256839 0.070457488 0.0036288165
0.0086477073 0.071012788 0.003599165
0.0064724139 0.07125324 0.0035822541
0.0040954743 0.071592227 0.0035611158
0.0017083719 0.071970545 0.0035385685
-0.00045673762 0.072171725 0.0035230974
0.044558369 0.059734892 0.0041344203
0.042303637 0.060734034 0.0040906081
0.040146682 0.061582573 0.0040524816
0.03791029 0.062058575 0.0040271003
0.035301153 0.062613875 0.0039974786
0.032693021 0.063228317 0.0037155813
0.030455464 0.063665025 0.0038583335
0.027846506 0.064200535 0.0039128382
0.0036188932 0.069357149 0.0036377301
0.0010097681 0.069912501 0.0036081234
-0.0015532632 0.070351772 0.0035827113
-0.0037196425 0.070270084 0.0035771327
-0.0055649709 0.070143625 0.0035743918
0.050613768 0.055849914 0.004294253
0.048976175 0.056393147 0.0042688223
0.046932261 0.057314962 0.0042285444
0.044436172 0.057943597 0.0041968292
0.041827053 0.058498953 0.0041671777
0.03959066 0.058974955 0.0041417805
-0.0021553834 0.067860194 0.0036677709
-0.0043917717 0.068336211 0.0036423756
-0.0066281613 0.068812221 0.0036169784
-0.0091683287 0.06890782 0.0036037425
-0.011632562 0.06909848 0.0035874629
0.05342048 0.053175628 0.0043989858
0.051414229 0.054121852 0.0043580392
0.048691921 0.054457162 0.0041537201
0.046514265 0.054865502 0.0038959133
0.043917876 0.055491615 0.0035303021
-0.0097138863 0.067132443 0.0036639413
-0.012323025 0.067687742 0.0036342898
-0.014498296 0.06792824 0.0036173789
-0.016954672 0.067894712 0.0036090147
0.055538751 0.050440125 0.0045031896
0.053374182 0.051232953 0.0043668868
0.050829969 0.051681206 0.0040410878
0.048337288 0.052004933 0.0035197316
-0.015035994 0.065928668 0.0036854623
-0.017645132 0.066483967 0.0036558555
-0.020180922 0.066926368 0.0036304388
-0.02243687 0.067036547 0.0036178036
-0.024140446 0.067087613 0.0036093947
0.059319057 0.046727818 0.0046481192
0.057374101 0.04768461 0.0046070181
0.055234894 0.048262503 0.0044950191
0.052727468 0.048821039 0.0039486876
-0.020810278 0.06443166 0.0037155626
-0.023046669 0.06490767 0.0036901664
-0.025283059 0.06538368 0.0036647702
-0.027854295 0.065385766 0.0036546914
-0.030366873 0.065297477 0.003647984
0.063457839 0.042991161 0.0047953017
0.06182434 0.043858092 0.0047585359
0.059525751 0.044622451 0.004639402
0.056964628 0.045256291 0.0041346652
0.054765791 0.045809649 0.0036619892
-0.025864815 0.062802278 0.0036418466
-0.028448217 0.063331373 0.0037244624
-0.031057335 0.063886732 0.0036948109
-0.033098206 0.064061478 0.0036807274
0.065816462 0.040347341 0.0048972191
0.063772544 0.041269157 0.0048569413
0.061554737 0.041700114 0.0047331126
0.059050962 0.042126335 0.0039954809
0.056453023 0.042713419 0.0037771547
-0.031441849 0.061493602 0.0036772126
-0.03377033 0.062127601 0.0037459834
-0.036159474 0.062344044 0.0037290817
0.067574918 0.037528347 0.0050029727
0.065565951 0.038258821 0.0049695736
0.063372374 0.038780712 0.004609176
0.061237905 0.039210729 0.0041005937
-0.036935471 0.060075358 0.0038057202
-0.039440718 0.060305655 0.0037878547
-0.04146935 0.060131665 0.0037860582
0.069922663 0.034021422 0.0051351208
0.067630909 0.035106208 0.0050047729
0.065131173 0.035765305 0.0041658422
0.062901281 0.036257837 0.0040287217
-0.040100619 0.05802305 0.0038653687
-0.042337004 0.058499061 0.0038399724
-0.044182349 0.058372542 0.0038372157
0.071686544 0.031633981 0.0052257366
0.069768541 0.032317951 0.005083099
0.067263164 0.03295812 0.0043282183
0.064566232 0.033298828 0.0039570918
-0.042813603 0.056263924 0.003916542
-0.045049995 0.05673993 0.0038911449
-0.046699803 0.056312211 0.0038997177
0.073148981 0.029051108 0.0053220401
0.071429573 0.029364908 0.0050314497
0.069336355 0.029793162 0.0043639299
0.066773638 0.030392196 0.0039368654
-0.045526583 0.054504853 0.0039676996
-0.047567446 0.054679602 0.0039536161
0.073321037 0.026273534 0.0054201912
0.071110539 0.026820512 0.0045918459
0.068478093 0.027302807 0.0039476426
-0.048691731 0.052452546 0.0040274365
-0.050860923 0.052330069 0.0040232399
0.075316168 0.02307298 0.0055401949
0.073063672 0.023850594 0.0051705847
0.070558228 0.024461783 0.0044723311
-0.049247742 0.049844939 0.0041167513
-0.051856883 0.050400238 0.0040870998
-0.053702217 0.050273784 0.004084344
0.076774538 0.020166453 0.0056478307
0.074993186 0.020997278 0.0055116666
0.072580531 0.021736605 0.0047577489
0.070077442 0.021878349 0.0040607909
-0.05233347 0.048165161 0.0041636545
-0.054496553 0.048528161 0.0041424939
0.078153461 0.01688735 0.0057682255
0.076748416 0.017867316 0.0056374157
0.074353188 0.018552242 0.0048820088
0.071834609 0.01914542 0.0042468971
0.069595985 0.019286662 0.0036495375
-0.055125888 0.046033505 0.0042276168
-0.056918263 0.046155397 0.0042163255
0.078022718 0.014812316 0.0058405241
0.076365858 0.015367439 0.0052586934
0.073884465 0.015961519 0.0044499384
0.071370147 0.016553437 0.003752321
-0.055485122 0.043425858 0.0038173357
-0.058203828 0.043891847 0.0042907614
-0.060313564 0.04363288 0.0042916266
0.079357252 0.011568652 0.0059595071
0.077912137 0.012557743 0.0059191799
0.075949147 0.013139312 0.00500168
0.073447712 0.013724005 0.0042765876
0.070889652 0.014300042 0.0038295044
-0.058858935 0.041783851 0.0041120043
-0.06096125 0.042057283 0.0043443721
0.079186164 0.0098526562 0.0060190428
0.077524222 0.010152244 0.0054562511
0.075199261 0.010467546 0.0048383875
0.07279662 0.011248558 0.0040869378
0.070329085 0.011671152 0.0039195679
-0.059457581 0.039333154 0.0035880627
-0.061693929 0.039831106 0.0042377096
-0.063503124 0.039638672 0.0044193547
0.079139538 0.0072251484 0.0061110612
0.077186361 0.0075610038 0.0051910933
0.074594021 0.0079973061 0.0043985751
0.072023183 0.0085623674 0.0040352037
0.07025151 0.0090965247 0.0040095756
-0.059878301 0.036583498 0.0035399841
-0.062278654 0.037374184 0.0041033188
-0.064541869 0.037609745 0.0044865003
0.08075048 0.0034836645 0.0062485673
0.079109065 0.0046260343 0.0058685811
0.07664004 0.0051852027 0.005061076
0.07417313 0.005749152 0.0041422741
0.071846604 0.0065060556 0.0041066762
-0.062697306 0.03491101 0.0036877813
-0.065015845 0.035224311 0.0043864176
-0.066772148 0.035271943 0.0045598429
0.080699153 0.0017810973 0.0063080909
0.078679755 0.0023861513 0.0056953141
0.076241314 0.0029379898 0.0046936525
0.073809691 0.0035422675 0.0042182896
-0.063080892 0.032573033 0.00366823
-0.065468885 0.033061266 0.004225513
-0.067542046 0.033488672 0.0046193982
0.080249459 -0.00069337874 0.0063931579
0.078154378 -0.00023041992 0.0056182863
0.075732015 0.00030920908 0.0045059528
0.074062288 0.00093064544 0.004310891
-0.063639194 0.029954756 0.0037579043
-0.066009238 0.030445395 0.0043569161
-0.068424679 0.030844381 0.0047087697
0.079693444 -0.0033009835 0.0064824736
0.077596657 -0.0028460131 0.0057078702
0.075201966 -0.0023218531 0.004429413
0.073698863 -0.0020019454 0.0044123409
-0.066615932 0.027845448 0.0043206578
-0.069026798 0.028352806 0.0047938311
0.08092165 -0.0066777738 0.0066057174
0.07933858 -0.0056327446 0.0063809715
0.076974653 -0.0049790666 0.0054300679
0.074721485 -0.0045751878 0.0045065954
-0.067160726 0.025620181 0.004229839
-0.069503389 0.026117666 0.0048703859
-0.07099434 0.026434992 0.0048534404
0.08075057 -0.0083937719 0.0066652531
0.078819185 -0.0077913706 0.0062196786
0.07637313 -0.0072773611 0.0052749207
0.074241012 -0.006828526 0.0045837928
-0.067740373 0.023398753 0.0040553333
-0.069979988 0.023882588 0.0049469555
-0.071800888 0.024114342 0.004931719
0.080420636 -0.010854817 0.006750308
0.078326069 -0.010422967 0.0059765512
0.075814083 -0.0098991962 0.0053647058
0.073680438 -0.0094574764 0.0046738572
-0.068332635 0.020787345 0.0040612714
-0.070639431 0.021291925 0.0047851158
-0.072399668 0.021671589 0.0050150985
0.079864606 -0.013462419 0.0068396386
0.077768356 -0.013038564 0.0060661212
0.075294457 -0.012536353 0.0052328501
0.07323385 -0.012012462 0.0047617499
-0.068890907 0.018169126 0.0041509606
-0.071277164 0.018693145 0.0046792198
-0.072955698 0.019063989 0.0051044133
0.07938803 -0.015697502 0.0069161924
0.077290297 -0.015280527 0.0061429245
0.074894048 -0.014819592 0.0048666755
0.073243111 -0.014271884 0.0048410334
-0.069369443 0.015924888 0.0042278366
-0.071847998 0.016465535 0.0045327879
-0.073805004 0.016908251 0.0051767575
0.078911431 -0.01793264 0.0069927471
0.076842897 -0.017537665 0.0060536154
0.074413583 -0.017072931 0.0049438579
-0.070052758 0.013699315 0.0038029673
-0.072467752 0.014238267 0.0042749802
-0.074281618 0.014673117 0.0052533131
0.078743882 -0.020628296 0.0070032962
0.076356865 -0.020193854 0.0057488289
0.073943175 -0.019613968 0.0050311927
-0.070576765 0.011159046 0.0035326816
-0.072894886 0.011471363 0.0042274352
-0.074837632 0.012065511 0.0053426716
0.078234643 -0.023264181 0.0068436069
0.075831376 -0.022835594 0.0056518577
0.073668227 -0.022410704 0.0051282421
-0.071216457 0.0083685005 0.0036670743
-0.07346072 0.0090468386 0.0043531768
-0.075393647 0.0094579086 0.0054319557
0.077757403 -0.025502356 0.0069202995
0.075351879 -0.025084384 0.0057288948
0.073415667 -0.024516286 0.0052011125
-0.071755722 0.0062059672 0.0038090879
-0.074062876 0.006757535 0.0045312196
-0.075870246 0.0072227684 0.0055085262
0.077200621 -0.028113514 0.007009753
0.074921362 -0.027560586 0.005885547
0.073083021 -0.026997425 0.0052868491
-0.072322458 0.0038582881 0.0039469553
