# .PCD v0.7 - Point Cloud Data file format
VERSION 0.7
FIELDS x y z
SIZE 4 4 4
TYPE F F F
COUNT 1 1 1
WIDTH 1275
HEIGHT 1
VIEWPOINT 0 0 0 1 0 0 0
POINTS 1275
DATA ascii
-0.0042102165 0.068044603 0.009602272
-0.0016235211 0.068251893 0.0095737651
0.00059364951 0.068429537 0.009549303
0.0031750703 0.068616316 0.0096049104
0.0057438686 0.068761922 0.0098288814
0.0079876333 0.068570539 0.0098173451
0.010367114 0.068538524 0.0097990334
0.013183476 0.06861572 0.00977326
-0.033074398 0.06193975 0.010389335
-0.031428687 0.062257178 0.010364583
-0.028968614 0.062943578 0.010320015
-0.026543006 0.063652955 0.0099413553
-0.023972349 0.063926861 0.0096186996
-0.021466749 0.064274818 0.0093925428
-0.01920615 0.064770281 0.0091744363
-0.016755616 0.065215103 0.0091385571
-0.014048108 0.06555634 0.0091042574
-0.011824736 0.065734483 0.0090797329
-0.0092308037 0.065942325 0.0090511339
-0.0068370583 0.066320471 0.0090180747
-0.0040727621 0.066728391 0.0089809401
-0.0014788291 0.066936232 0.0089523103
0.00094473286 0.066944063 0.0089322161
0.0033682948 0.066951886 0.0089121219
0.0060772281 0.06688939 0.0088921972
0.0082062902 0.066940367 0.0089841532
0.010816686 0.066743799 0.0091087567
0.013382646 0.066890746 0.0093327183
0.015876487 0.066962488 0.0095432708
0.018442973 0.066717282 0.0097978283
0.020629896 0.066539876 0.009786264
0.02264631 0.066404507 0.0097746029
-0.038676564 0.059560694 0.010519885
-0.036170684 0.060139406 0.010478776
-0.033714674 0.060452376 0.010225145
-0.031259753 0.060673125 0.0097828237
-0.028748283 0.061075833 0.009484129
-0.026408659 0.061583981 0.0093468241
-0.024215108 0.062132496 0.0093093487
0.013952756 0.065190785 0.0088882539
0.015977636 0.065054864 0.008876537
0.01854326 0.064860463 0.0089534232
0.020993672 0.064909726 0.0092854453
0.023514729 0.065007612 0.0097338678
0.025974208 0.06474106 0.0098066209
0.027990628 0.064605698 0.009794944
-0.042681385 0.056715831 0.010653949
-0.040725585 0.057390355 0.010502739
-0.038700439 0.057492521 0.010176802
-0.036233693 0.057846189 0.0097604143
-0.033711266 0.058482874 0.0095169963
-0.031617817 0.059116568 0.0094772922
0.019690091 0.063414082 0.0089046042
0.021344412 0.063248456 0.0088969627
0.023541374 0.062828124 0.0088939639
0.026040073 0.062750958 0.0091264425
0.02856292 0.062864751 0.0095187081
0.030744527 0.062952131 0.0097201159
0.032965932 0.062777251 0.0098193595
-0.047802281 0.054202158 0.010785329
-0.045824327 0.054236926 0.010767925
-0.043304447 0.054859512 0.010474999
-0.040849701 0.05506932 0.0098788962
-0.038744498 0.055451747 0.0096660908
-0.037137888 0.055878691 0.0096377507
0.026969302 0.061015461 0.0089304801
0.028851934 0.060793567 0.0089229802
0.031478323 0.060874633 0.0091654705
0.033861395 0.060963865 0.0095127337
0.036210705 0.060531847 0.009872769
0.038369633 0.060240831 0.0098654898
-0.050383925 0.050902124 0.010923983
-0.04806976 0.051681425 0.010877307
-0.04569431 0.052083198 0.010510018
-0.043305367 0.052470364 0.0098095452
-0.041405715 0.053300317 0.0097644683
0.032706637 0.059238762 0.0089468164
0.034360964 0.059073132 0.0089391889
0.036680717 0.058826897 0.0092018889
0.039039303 0.058686577 0.0096929874
0.041300531 0.058434196 0.0099058514
-0.052848238 0.049219988 0.01100402
-0.050440833 0.049174819 0.010804034
-0.048025604 0.04939232 0.010491465
-0.045771983 0.049885731 0.0099217873
-0.04392438 0.050613582 0.0098807486
0.037332278 0.057372991 0.008975436
0.039441589 0.05661032 0.0090622986
0.041739926 0.056501523 0.0095541542
0.043606516 0.056701262 0.0099486951
-0.057619445 0.045950748 0.011159471
-0.055223461 0.046431415 0.011122799
-0.052654762 0.046651043 0.011010577
-0.050376121 0.046864249 0.01029794
-0.048028938 0.047551263 0.010023371
0.040535323 0.054647751 0.0090462863
0.042304363 0.054292511 0.0090444563
0.044437151 0.054569717 0.0095508276
0.046750832 0.054247823 0.0099102929
0.048557796 0.053633619 0.010017444
-0.059340533 0.043750703 0.011251931
-0.057513855 0.043742411 0.011237248
-0.055061173 0.043885566 0.010961938
-0.052707799 0.044287674 0.010177879
-0.050918173 0.044834875 0.010143741
0.044620037 0.05255226 0.0090875011
0.047012076 0.052144364 0.0093325973
0.049329754 0.052118 0.010065085
0.050950009 0.051598247 0.010070365
-0.059043597 0.040062726 0.011380828
-0.057212308 0.041000579 0.011118007
-0.054965526 0.041614801 0.010541667
-0.053229559 0.042661741 0.010240042
0.047850057 0.050264012 0.0091425665
0.049812224 0.049761895 0.0093945721
0.051855393 0.049578696 0.010134882
-0.064134814 0.037180275 0.011525103
-0.061585672 0.03780875 0.011481858
-0.059397049 0.038302254 0.01144638
-0.057060208 0.038657017 0.010686883
-0.055214375 0.039520752 0.010368122
0.050517544 0.047396515 0.0092228632
0.052544806 0.047340367 0.0097086085
0.054770235 0.047202785 0.010195626
-0.064385049 0.03567547 0.011580725
-0.061819445 0.035891555 0.011468693
-0.059399568 0.036188867 0.01063219
-0.057733051 0.036834072 0.010484402
0.052575909 0.045388885 0.0092775337
0.054942053 0.04530067 0.0097616492
0.056957729 0.045249987 0.010247297
-0.066680536 0.032819111 0.011701268
-0.0641772 0.033093933 0.011670983
-0.061815444 0.033435397 0.010972367
-0.059777506 0.034433782 0.010586596
0.055630483 0.043184217 0.0093310457
0.057973672 0.042838093 0.010058022
0.06012588 0.042187996 0.01033044
-0.066571563 0.030312473 0.011706204
-0.064142883 0.030580701 0.010981909
-0.062503465 0.031233493 0.010722869
0.056550503 0.041021537 0.0094005354
0.05829351 0.040569186 0.0095135933
0.060458217 0.040355004 0.010192853
0.06229189 0.039887011 0.010394647
-0.068821661 0.027757082 0.011798942
-0.066446669 0.02785977 0.011142104
-0.064281002 0.028606109 0.01083097
0.058982614 0.038607262 0.0094666155
0.060838208 0.037991814 0.0096609835
0.062946305 0.038348712 0.010444064
-0.068543918 0.025280176 0.011584687
-0.066219166 0.025326926 0.010963601
0.061701499 0.035718966 0.0095472401
0.06348557 0.035934832 0.010108664
0.065284021 0.035672661 0.010520237
-0.070755698 0.02254498 0.01210042
-0.068332195 0.022789272 0.011404815
-0.066390753 0.023156649 0.011042285
0.062334739 0.034030244 0.0096022002
0.063961796 0.033508353 0.0096074799
0.066200554 0.033531323 0.01042226
0.068590596 0.033153746 0.010582904
-0.070631251 0.019976959 0.011857291
-0.068420783 0.020399161 0.011157067
-0.066441856 0.021475239 0.011102575
0.064596459 0.031415947 0.0096768001
0.066556476 0.030989287 0.010051212
0.068683915 0.030841349 0.010664483
-0.072813779 0.017237285 0.011305616
-0.070590414 0.017415414 0.011281078
-0.068900876 0.0180478 0.011244739
0.066950195 0.028585352 0.0097583365
0.068887338 0.028555479 0.010410685
0.070652001 0.028308043 0.010738612
-0.072634883 0.015015184 0.011383287
-0.070782073 0.01516367 0.011362837
0.069205388 0.026369484 0.01006896
0.071169473 0.026493637 0.010798979
-0.072426148 0.012422768 0.011473876
-0.070943914 0.012541547 0.011457545
0.069869556 0.023824599 0.0099039795
0.071687341 0.023835631 0.01088941
-0.074698702 0.0096213231 0.012009191
-0.072217427 0.0098302951 0.011564511
0.070448846 0.021261895 0.0099905236
0.072290607 0.021323269 0.010791999
-0.074632443 0.0074004214 0.011670779
-0.072409078 0.0075785522 0.01164627
0.070798144 0.019239817 0.010059672
0.072645694 0.019193588 0.010629934
0.074545771 0.019154977 0.011032711
-0.074423723 0.0048079449 0.011761368
-0.071966097 0.004855813 0.011739592
0.072908744 0.016687168 0.010333435
0.07507515 0.016548337 0.011030256
-0.074215002 0.0022155251 0.011852003
-0.071721174 0.0025085541 0.011821202
-0.069931537 0.0030557548 0.011787065
0.073268585 0.01403305 0.010224892
0.075220168 0.014195994 0.010953655
-0.074006282 -0.00037694792 0.011942607
-0.072183296 0.0001419161 0.011909238
0.073477305 0.011440635 0.01031551
0.075450771 0.011611965 0.010981227
0.077184044 0.011757265 0.011274575
-0.073797546 -0.0029693611 0.012033227
0.074026771 0.0092482427 0.010389077
0.07575693 0.0090265982 0.010799761
0.07776089 0.0092052463 0.01136073
-0.073618636 -0.0051914533 0.012110895
0.075996317 0.0068068868 0.010710103
0.077939056 0.0069924267 0.011438067
-0.073490001 -0.007715764 0.012199719
0.076341949 0.0043364246 0.010830971
0.078146927 0.0044108345 0.011528297
-0.075795114 -0.010584187 0.012320749
-0.073571764 -0.010405998 0.012296223
0.076753087 0.0016597558 0.010970612
0.078354761 0.0018292958 0.011618541
-0.075616218 -0.012806224 0.012398417
-0.073613115 -0.012539252 0.012372539
0.076931737 -0.00055918685 0.011048141
0.078817114 -0.00045352022 0.011696043
-0.075407483 -0.0153987 0.012489022
-0.07355468 -0.015250216 0.012468602
0.076965749 -0.0030564771 0.010914437
0.078894824 -0.0030437091 0.011587556
0.080901124 -0.0036580842 0.011793147
-0.07519877 -0.017991116 0.012579641
-0.073178627 -0.017935757 0.012561169
0.077102125 -0.0057875579 0.010899377
0.079072975 -0.0055679553 0.011542535
0.081900723 -0.0053101634 0.011843803
-0.073016748 -0.019946236 0.012631432
0.077281028 -0.0080096563 0.010977031
0.079409689 -0.0079927444 0.011530817
0.082108594 -0.007891749 0.011934047
0.077279337 -0.010768062 0.011075287
0.079456426 -0.010555061 0.01147877
0.077327929 -0.013224188 0.011162345
0.079730615 -0.012969641 0.011633991
0.07759589 -0.015710281 0.011248673
0.080082692 -0.015596326 0.011349372
-0.068997093 -0.030167243 0.012962529
-0.06674391 -0.030359434 0.012950939
-0.065261662 -0.030240716 0.012934594
0.078115933 -0.018379377 0.011339494
0.08033929 -0.018201245 0.011314939
-0.068877816 -0.031648636 0.013014314
-0.067025013 -0.031500213 0.012993864
0.076131098 -0.021520363 0.011467571
0.078024372 -0.020716356 0.011423468
0.074046008 -0.023366923 0.01169335
-0.020610241 0.063395165 0.0082342317
-0.019121794 0.063514434 0.0082178097
-0.016383199 0.064054742 0.0081761666
-0.013942165 0.064303778 0.0081473263
-0.011709491 0.064482652 0.0081226928
-0.0089693693 0.064602479 0.0079848375
-0.0064191786 0.064865939 0.0077928659
-0.0042604152 0.065135889 0.0077883452
-0.0016529094 0.065344803 0.0077595748
0.00089621276 0.065452069 0.0077121593
0.0030894072 0.065540232 0.0078210542
0.0055416836 0.065740235 0.0079368223
0.0084145032 0.065720901 0.0079140114
-0.030045625 0.059644781 0.0084449612
-0.028557178 0.059764054 0.0084285391
-0.026354441 0.060314849 0.0083908997
-0.023702942 0.061016776 0.0083442228
-0.021215562 0.061529182 0.008055469
-0.018989099 0.061762325 0.0077787954
-0.01638145 0.061999056 0.0076239714
-0.013771854 0.062235899 0.0074690869
-0.011532202 0.062415358 0.0074443612
-0.008987329 0.062555358 0.0073685655
-0.0062655075 0.062589757 0.0068113413
-0.0040204306 0.062769674 0.0067865821
-0.001401173 0.062979557 0.0067576868
0.0012122013 0.063164979 0.0068409033
0.0034786318 0.063531026 0.0072136465
0.0060070902 0.063806869 0.0073139081
0.0086045647 0.063973367 0.0074743433
0.011106623 0.064183131 0.0077466313
0.013613113 0.063998975 0.0077508558
0.015947202 0.063864812 0.0079184864
0.018127946 0.063691951 0.007906815
-0.035075534 0.056995936 0.0085804285
-0.033416003 0.057316083 0.0085554495
-0.030942498 0.058026418 0.0084189363
-0.028461898 0.058343351 0.0081447894
-0.026247593 0.058590613 0.0077843145
-0.023561759 0.058776744 0.0073452024
-0.021021642 0.058772501 0.0070680147
-0.018782359 0.058986384 0.0068753138
-0.016166933 0.059248354 0.0065943506
-0.013544884 0.059493881 0.0063974271
-0.011294863 0.059691925 0.0062885564
-0.008775861 0.060155049 0.0062514637
-0.0060720691 0.060487814 0.0062175225
-0.0038207921 0.06066823 0.006192686
-0.0011942987 0.060878672 0.0061636828
0.0015193149 0.060945142 0.0061391406
0.0037136651 0.060894508 0.0061229747
0.0063267001 0.061063994 0.0062831948
0.0089393547 0.061242554 0.0064014038
0.011172676 0.061386615 0.0065447623
0.013688631 0.061615314 0.0067495778
0.016178895 0.061888538 0.0070863441
0.018840903 0.062099166 0.0077909147
0.021336429 0.062050864 0.0079390109
0.023346078 0.061677184 0.0079358807
-0.038016781 0.054764017 0.008683959
-0.035704304 0.055139013 0.0083181504
-0.033500053 0.055381902 0.0079578999
-0.030936511 0.055702951 0.0073417984
-0.028336959 0.055960946 0.0070611741
-0.02610069 0.056173515 0.0068685282
-0.023553828 0.056328997 0.0067087132
-0.020963516 0.056490958 0.0064816652
-0.018617973 0.056840658 0.0064500244
-0.016234724 0.05725807 0.0064156447
-0.013770392 0.05760647 0.0063830838
0.0067283236 0.059098035 0.0061623026
0.0091477996 0.059065469 0.0061436975
0.011399087 0.059245832 0.006118861
0.013766807 0.059152536 0.0061028125
0.016335364 0.059525244 0.0062686345
0.018831741 0.059724059 0.0066247303
0.021379331 0.059820779 0.0071425149
0.023927854 0.059933648 0.0075762747
0.02625001 0.06007069 0.0078025702
0.029107429 0.059893005 0.0079522859
-0.042366616 0.051421098 0.0088385837
-0.040635172 0.052347947 0.0087004537
-0.038158502 0.052736904 0.0081944391
-0.035608787 0.052731913 0.0072912294
-0.033404369 0.052992698 0.0068191653
-0.030933864 0.053463522 0.0066710152
-0.028395066 0.053981442 0.0066317962
-0.025971271 0.054364346 0.006598318
-0.024470421 0.054484606 0.0065817703
0.017178239 0.057821825 0.0061222864
0.019084498 0.057597149 0.0061147027
0.021365972 0.057402551 0.0061029689
0.023943901 0.05754574 0.0064103166
0.026631467 0.057891522 0.0071341293
0.029064322 0.058055289 0.0074176891
0.031518936 0.058245555 0.0078244628
0.033987667 0.057888575 0.00798376
0.036417101 0.057484366 0.0079782782
-0.045163862 0.04895119 0.0089494158
-0.043000028 0.049571514 0.008818672
-0.040535104 0.049741078 0.0077917986
-0.038052682 0.049954358 0.007104326
-0.035609737 0.050788365 0.0068045286
-0.033669598 0.051483005 0.006763909
0.022237161 0.055962708 0.0061471174
0.024432378 0.055666804 0.0061397115
0.02683029 0.055198494 0.006136735
0.029215842 0.055420093 0.006538203
0.031687945 0.055448607 0.0067039365
0.034315478 0.055999827 0.0074115619
0.036785375 0.055959374 0.0079294872
0.03868543 0.055669859 0.0080243461
-0.049181517 0.046133973 0.0090826144
-0.047555778 0.046658847 0.0089255366
-0.045271773 0.046845853 0.0084248651
-0.042797439 0.047311191 0.0077568982
-0.040669553 0.047380421 0.0070784511
-0.038681049 0.04806212 0.0069267144
0.027501667 0.053113613 0.0062054973
0.029292919 0.052753925 0.006203685
0.031982832 0.053072326 0.0062472867
0.03442179 0.053457249 0.0066370433
0.036919251 0.053553361 0.0072385902
0.039331872 0.053747404 0.0078146318
0.041441064 0.053694792 0.0080721416
-0.05218691 0.043148316 0.0092135156
-0.04995637 0.044022426 0.0090101771
-0.047713973 0.044391632 0.0084048929
-0.04514505 0.04447186 0.007440987
-0.042837117 0.044961356 0.0070711533
-0.041126389 0.045601707 0.0070343437
0.03227739 0.051332403 0.0062298812
0.034813311 0.051026136 0.006220066
0.037252929 0.051048387 0.0066996235
0.039811932 0.051309731 0.0072698062
0.042190272 0.051622465 0.0078896387
0.044684868 0.051315941 0.0081303185
0.046318758 0.050791804 0.0081356298
-0.054001827 0.040881839 0.0093090748
-0.052313298 0.041362997 0.009005201
-0.049882695 0.041808013 0.0082417065
-0.047587119 0.042014897 0.007548457
-0.045317449 0.042414293 0.0071821474
0.035598252 0.049484987 0.0062685125
0.037245739 0.048956513 0.0062738704
0.039732922 0.049024101 0.0065012304
0.042241342 0.049147233 0.007004492
0.044730917 0.049264785 0.0075358637
0.047097206 0.049263455 0.0081836879
0.048731089 0.048739314 0.0081889844
-0.056024905 0.038099665 0.0094246874
-0.054430895 0.038741078 0.0092776055
-0.052153777 0.038936552 0.0082374681
-0.049664918 0.039244533 0.0074139349
-0.047727808 0.04004053 0.0072863819
0.038030688 0.047415372 0.0063223168
0.040093441 0.047257166 0.0063110869
0.042683806 0.04675889 0.0063076327
0.045104809 0.0467638 0.006913051
0.047532942 0.046850484 0.0076823169
0.049391005 0.047188044 0.0082388213
-0.05876226 0.034885973 0.0095615303
-0.056789473 0.035974763 0.0094296392
-0.054378141 0.036283076 0.0084752487
-0.051962577 0.036583733 0.007555305
-0.05000782 0.037090108 0.0074100764
0.043525215 0.044836301 0.0063692145
0.045296881 0.044376906 0.0064822789
0.047643691 0.04425139 0.0070841089
0.050223764 0.044764802 0.0081306947
0.052698601 0.044116512 0.0083211595
-0.060815286 0.032475661 0.0096641527
-0.059147142 0.033204105 0.009513394
-0.056840964 0.03370516 0.0087691527
-0.054254953 0.034039874 0.0076444121
-0.052348211 0.034889717 0.0075075962
0.04595764 0.042766742 0.0064230179
0.047968503 0.042230811 0.0065166382
0.050410002 0.042327162 0.0074029332
0.052821223 0.042303029 0.0080208639
0.054995742 0.042254411 0.0083686821
-0.06286829 0.030065363 0.0097667743
-0.061277464 0.030703098 0.0096198823
-0.058979187 0.030842353 0.0088317106
-0.056637954 0.031242158 0.0077635534
-0.054898497 0.03216923 0.0076253191
0.048998188 0.040179726 0.0064902771
0.050710525 0.039741673 0.0065752324
0.053142589 0.039859582 0.0072808284
0.055432338 0.040048659 0.0081707379
0.057179946 0.039934158 0.0084334435
-0.063432872 0.02777439 0.0098529728
-0.061403692 0.028259994 0.009273232
-0.058909666 0.02828577 0.0082133953
-0.056908228 0.028988864 0.007755015
0.051491003 0.037360139 0.0065703001
0.053388532 0.03736588 0.0068274746
0.055845469 0.03749362 0.0075305887
0.058087189 0.037785366 0.0084310696
-0.065455936 0.024992164 0.0099686012
-0.063697457 0.02553542 0.0096013201
-0.060941573 0.025848176 0.0084836148
-0.058708083 0.026328538 0.0078644939
0.053605709 0.035328038 0.006625385
0.055863049 0.035214335 0.007111283
0.058570329 0.035346396 0.0080851279
0.06080417 0.03523393 0.0085711787
-0.065591946 0.022960093 0.010042081
-0.063492127 0.023027508 0.0093554193
-0.060905784 0.023324106 0.0081228511
-0.059067484 0.024538502 0.0079311617
0.056399327 0.032861564 0.0066903355
0.058703914 0.032865949 0.007518095
0.060996614 0.032909367 0.0082235504
0.062988378 0.032913622 0.008635941
-0.067507505 0.019462878 0.010182284
-0.065519899 0.020352844 0.0098484308
-0.063232951 0.020523224 0.0090088062
-0.061239861 0.020698054 0.0080857137
0.057520341 0.030483671 0.0067658667
0.059019022 0.030218963 0.0068742214
0.061431583 0.030466447 0.0078121573
0.063594699 0.030739125 0.0087084156
0.065232478 0.029849518 0.0087266993
-0.069292486 0.016824532 0.010290849
-0.067763411 0.017602099 0.010250648
-0.06542857 0.017922502 0.0094696367
-0.063013814 0.018165682 0.0085239299
-0.061586112 0.018298032 0.0081739901
0.059462536 0.02824902 0.0068295645
0.061707772 0.02814991 0.0073150303
0.064070396 0.028294295 0.0081244484
0.065892398 0.028298251 0.0087765511
-0.069544829 0.015307121 0.010346946
-0.067680158 0.015199054 0.0099716643
-0.065317526 0.015321678 0.009123574
-0.063037783 0.015690746 0.0082787219
0.060103729 0.026539098 0.0068852101
0.061842237 0.025730891 0.0069831284
0.064194538 0.025630221 0.0075512258
0.066650152 0.026017794 0.0085656522
-0.069707334 0.012674055 0.010442046
-0.067595817 0.012565088 0.0095189307
-0.065131404 0.012789455 0.008672053
-0.063475072 0.013617668 0.0083561232
0.062454235 0.023142012 0.0069869468
0.064428031 0.023100559 0.0073058074
0.067114301 0.023490498 0.0085089002
0.068718404 0.023765821 0.0089148441
-0.069910124 0.01004117 0.010370691
-0.06722296 0.010284604 0.0090891942
-0.06519673 0.010611354 0.0084772659
0.062777698 0.021469535 0.007043859
0.064661421 0.020861654 0.0072168503
0.067309439 0.021049693 0.0082725845
0.069300115 0.021192364 0.0090017319
-0.071520813 0.0072885347 0.010648652
-0.069766201 0.0074339542 0.010191349
-0.067075409 0.0076640197 0.0089102751
-0.065364048 0.0089373076 0.0085382415
0.065223075 0.018457469 0.0071311193
0.067360491 0.018515212 0.0080352966
0.069593243 0.018437466 0.0088830004
0.071460091 0.01762245 0.0091111856
-0.071371101 0.0054290923 0.010713649
-0.069571167 0.0048250165 0.010220123
-0.067414753 0.0050932043 0.008691933
0.065950222 0.015836058 0.0072185323
0.067618147 0.015818108 0.0076502524
0.069885395 0.01599939 0.0086815264
0.071579866 0.016134877 0.0091631915
-0.071071677 0.0017100842 0.01084363
-0.069128484 0.0024425695 0.010134559
-0.067943066 0.0034468095 0.0087548671
0.066413425 0.013835143 0.0072860057
0.067908049 0.013578058 0.0073941275
0.070121698 0.013766173 0.0085923513
0.072131641 0.01393328 0.0092370743
-0.07121852 -0.00041545692 0.010738592
-0.069219753 6.8063942e-05 0.0096003842
-0.067641139 -0.00030316933 0.0088859294
0.068215832 0.011063138 0.0073699718
0.070402212 0.011156908 0.0084745167
0.072341226 0.011329985 0.0093280682
-0.071146183 -0.0027950914 0.010754523
-0.068879612 -0.002656695 0.0093134288
0.068742387 0.0083604921 0.0074619232
0.070739195 0.0085433684 0.0081895497
0.073077776 0.0086940872 0.0094159115
-0.070987076 -0.0050340393 0.010749563
-0.068698712 -0.0049035735 0.0093919588
0.068986513 0.006266553 0.0075344769
0.070975952 0.0062979646 0.0081007881
0.073561281 0.0065518967 0.0092380727
-0.072465956 -0.0088819638 0.011232237
-0.070818596 -0.0076524327 0.010674671
-0.068487659 -0.0075249388 0.009483601
0.069479913 0.0038906222 0.0076150373
0.071257569 0.0036743046 0.0079834573
0.073836774 0.0039413995 0.0091411686
0.075604774 0.0033569525 0.0095853005
-0.072346188 -0.010369547 0.011284231
-0.070608549 -0.010261138 0.010765824
-0.068276607 -0.010146304 0.0095751993
0.071511276 0.0010494908 0.0079497751
0.074068703 0.0013315518 0.0091696829
0.075754479 0.0014974463 0.0096502984
-0.072452255 -0.012773538 0.011370703
-0.07042852 -0.012497205 0.010844008
-0.068175845 -0.012423323 0.009321929
0.071692258 -0.0011981649 0.0080283387
0.074248724 -0.00090451562 0.0092478385
0.075934142 -0.00073392363 0.0097282864
-0.072329044 -0.015234037 0.011457318
-0.070280708 -0.015131355 0.010686434
-0.067964502 -0.015048255 0.0094136568
0.071903378 -0.0038204759 0.0081199743
0.074458741 -0.0035132202 0.0093390187
0.076143734 -0.0033372117 0.0098192804
-0.072057016 -0.01768256 0.011542293
-0.070029132 -0.017723763 0.010943475
-0.067753159 -0.017673243 0.0095054293
0.072114505 -0.0064427331 0.0082116527
0.074668795 -0.0061219167 0.0094301701
0.076353326 -0.0059404466 0.0099102734
-0.071853407 -0.020211492 0.011630678
-0.069787703 -0.019930573 0.011270239
-0.067492694 -0.019882796 0.009915513
-0.066010766 -0.020552991 0.0095937112
0.072295479 -0.0086903861 0.0082902182
0.074848816 -0.0083579225 0.0095083248
0.076532997 -0.0081718666 0.0099882623
-0.074198104 -0.022719996 0.011739188
-0.072102301 -0.022701759 0.011721398
-0.069618389 -0.022559313 0.011195705
-0.067335568 -0.022263333 0.010165784
-0.065889992 -0.022052934 0.0096461317
0.072552159 -0.011041189 0.0084295515
0.075036645 -0.010961073 0.0096620517
0.076682702 -0.010031376 0.010053259
-0.073753268 -0.02545416 0.01183292
-0.071892701 -0.025305053 0.011812392
-0.069388174 -0.025155798 0.011369669
-0.066975057 -0.024817057 0.01029925
-0.065303452 -0.024647845 0.0097337682
0.072636038 -0.013645721 0.0084138364
0.075239189 -0.013567152 0.0097740162
-0.071713053 -0.027536422 0.011890381
-0.069361396 -0.0272862 0.011762164
-0.066958249 -0.027332114 0.011025489
-0.065054439 -0.027247032 0.0099910665
0.071110293 -0.016359197 0.0083228182
0.072811805 -0.016156152 0.0088020554
0.075359717 -0.015785208 0.010018819
-0.071593285 -0.029024063 0.011942388
-0.069360614 -0.028845126 0.011917754
-0.066725872 -0.029008346 0.011902005
-0.064925998 -0.028925627 0.010550116
0.071291447 -0.018609229 0.00840146
0.073091984 -0.018598108 0.0089581562
0.075614274 -0.018406022 0.0099849897
0.077341437 -0.018213121 0.010339231
-0.065795042 -0.032612987 0.010021406
-0.063918971 -0.032462645 0.010000707
-0.061637498 -0.032657243 0.0099890018
0.071412213 -0.020109173 0.0084539112
0.073223509 -0.020948209 0.009196721
0.075565182 -0.020840993 0.010347287
0.077491149 -0.020072563 0.010404228
-0.065644093 -0.034487948 0.01008696
-0.063737817 -0.03471268 0.010079363
-0.061891939 -0.034187324 0.010045561
-0.060438767 -0.04456101 0.011136909
-0.058161296 -0.044172991 0.010370662
-0.060202349 -0.046988863 0.011738478
-0.057798084 -0.046618629 0.010788317
-0.055871192 -0.046820115 0.01044621
-0.057479743 -0.049105704 0.011430197
-0.055105686 -0.049165286 0.010614401
-0.053089421 -0.049710866 0.01052638
-0.057248048 -0.051693238 0.011631667
-0.054785047 -0.051514875 0.011204903
-0.052587237 -0.051576957 0.010731685
-0.057163116 -0.054203607 0.01244812
-0.054754686 -0.054068454 0.011918197
-0.052197155 -0.053716704 0.011262107
-0.050235756 -0.053885434 0.01065171
0.055686202 -0.045575939 0.0098897172
0.05739741 -0.045221929 0.010129945
0.059918851 -0.044935893 0.010432707
0.062534481 -0.04472632 0.010403831
0.064964995 -0.044386093 0.010955582
-0.054403201 -0.056467522 0.01277908
-0.051969558 -0.056334738 0.012220743
-0.049600385 -0.056244813 0.011230857
-0.047983024 -0.056850042 0.010738847
0.055485245 -0.047427092 0.0095570162
0.057766702 -0.04762169 0.0095452815
0.060195964 -0.047255162 0.010179494
0.062714897 -0.046967015 0.010482151
0.065103121 -0.046940118 0.011274709
-0.051960941 -0.058891881 0.012845441
-0.049390152 -0.058529351 0.012277835
-0.047037445 -0.058621261 0.01106709
0.056237128 -0.050511956 0.0096606873
0.057947867 -0.049871664 0.0096239224
0.060382422 -0.049851611 0.010353796
0.062873863 -0.049539845 0.010739258
0.065254427 -0.049499668 0.011552242
-0.049189471 -0.06093869 0.012812275
-0.046458118 -0.060708709 0.011697668
-0.044138391 -0.06083167 0.011080115
-0.042077329 -0.06140906 0.010852887
0.055984385 -0.052773871 0.0097433189
0.058087442 -0.052431855 0.0099641206
0.060520194 -0.052404813 0.010693765
0.062896684 -0.051996216 0.011438052
-0.046398766 -0.063383877 0.012709745
-0.04400127 -0.063149966 0.011931314
-0.041421734 -0.063085295 0.011018421
-0.039644904 -0.063478619 0.010906692
0.053658105 -0.056002453 0.0098773129
0.055720754 -0.055309586 0.0099191489
0.058116324 -0.054884385 0.01069053
0.060620036 -0.054777384 0.011377835
0.063038893 -0.054543037 0.011749963
-0.04363529 -0.06546399 0.01258253
-0.041206211 -0.065528117 0.011993139
-0.039017674 -0.065381259 0.011242217
-0.036982447 -0.06527821 0.01094903
0.051587988 -0.05843284 0.0099807903
0.053569011 -0.058009382 0.0101997
0.055889558 -0.057618175 0.010702879
0.058484059 -0.057408102 0.011288849
0.060884215 -0.057215594 0.011762674
-0.041166194 -0.067835897 0.012825494
-0.038583148 -0.067711622 0.012049424
-0.036119334 -0.067462601 0.011457517
-0.033599153 -0.067990452 0.011017936
-0.031947959 -0.068397328 0.011018907
0.049063578 -0.061474726 0.010109792
0.05119415 -0.060524758 0.010308688
0.053561997 -0.060308319 0.010889173
0.05610903 -0.060101464 0.011559847
-0.038330365 -0.070177928 0.013052474
-0.035851631 -0.070048407 0.012577283
-0.033389676 -0.069915131 0.011885277
-0.031067107 -0.069800436 0.01117286
-0.028967803 -0.070234306 0.011059946
0.046487421 -0.063873753 0.010216296
0.048781134 -0.063357644 0.010429282
0.051213045 -0.062922828 0.011144434
0.053783022 -0.062845185 0.011654337
-0.033260133 -0.072197437 0.012766053
-0.030775107 -0.072095364 0.012225072
-0.028202299 -0.072081655 0.011619807
-0.025732579 -0.071889102 0.011092435
-0.024081392 -0.072295979 0.011093403
0.042331342 -0.066974461 0.010360689
0.044271473 -0.066279829 0.010320099
0.046700593 -0.066103719 0.010722798
0.049078256 -0.065663315 0.011182512
0.05142352 -0.065536998 0.011235817
-0.027956152 -0.074528515 0.012205283
-0.025395734 -0.074088089 0.011751677
-0.023171246 -0.07405252 0.011315263
-0.02062016 -0.07435175 0.011138295
-0.018010681 -0.074526951 0.011123194
-0.016335592 -0.074694633 0.011115464
0.035443828 -0.070545681 0.01054421
0.037070613 -0.070113413 0.010515505
0.039315421 -0.069380566 0.010562003
0.041757129 -0.068762958 0.010629217
0.044225179 -0.068509534 0.010983587
0.046698865 -0.068456769 0.011301459
-0.022918133 -0.07637997 0.012229999
-0.020308629 -0.076229006 0.012036513
-0.017708983 -0.076235488 0.011403942
-0.015464389 -0.076134533 0.011159628
-0.013047782 -0.076444127 0.011150886
-0.010901449 -0.076523729 0.011136158
0.027745508 -0.073427029 0.010709786
0.029621568 -0.073276684 0.010689071
0.03184266 -0.072721317 0.010651148
0.034546766 -0.072195821 0.010610306
0.036998853 -0.071812801 0.010910162
0.039500501 -0.071407564 0.011459001
0.042099174 -0.071170256 0.011512675
-0.01747638 -0.078574933 0.01226367
-0.015237321 -0.078455165 0.012074268
-0.012622787 -0.07836581 0.011716138
-0.010000923 -0.078246795 0.011440336
-0.0077519692 -0.078066587 0.011415516
-0.0052394103 -0.07804206 0.011255101
-0.0026398478 -0.077824317 0.011114894
-0.00021432713 -0.077931888 0.011098876
0.020047184 -0.07630837 0.010875332
0.022424392 -0.075815938 0.010838368
0.02478192 -0.075505652 0.010933134
0.027172593 -0.075186759 0.011043963
0.029674508 -0.074946538 0.011331831
0.032187305 -0.074742265 0.011520815
0.03475732 -0.074385464 0.011456325
0.037078362 -0.074203566 0.011661786
-0.0097926604 -0.080590226 0.012272566
-0.0075506791 -0.080410607 0.012247839
-0.0048793368 -0.079969324 0.012010158
-0.0023348145 -0.079770416 0.011765397
-7.4493706e-05 -0.079713568 0.01141136
0.0025329371 -0.079221457 0.011122325
0.0051594251 -0.079010956 0.011093381
0.0074107056 -0.0788306 0.011068544
0.010037201 -0.078620166 0.011039541
0.012669574 -0.078692429 0.011270772
0.014918528 -0.078512222 0.011245967
0.017542308 -0.078301989 0.011217008
0.020166088 -0.078091748 0.011188052
0.022380717 -0.077820897 0.011410448
0.0248884 -0.077584125 0.011681742
-0.0081920829 0.059011679 0.0052867457
-0.005931505 0.059192833 0.0052618152
-0.0036709234 0.059373993 0.0052368697
-0.0014103386 0.059555095 0.0052119242
0.00085024006 0.059736252 0.0051869946
-0.020443387 0.055756204 0.0055028908
-0.018559566 0.055907104 0.0054820981
-0.015786739 0.056454167 0.0054399464
-0.013220538 0.056876317 0.005403921
-0.011084923 0.057263985 0.0053726546
-0.0084475838 0.057475351 0.0053435424
-0.0058102394 0.057686653 0.0053144749
-0.0035496559 0.05786781 0.0052895295
-0.0012890708 0.058048911 0.005264584
0.0013482692 0.058260273 0.0052354708
0.0039856206 0.058471575 0.0052063875
0.0062765167 0.058276173 0.0051945997
0.0089441817 0.058110915 0.0051786592
0.011581526 0.058322277 0.005149561
0.013088578 0.058443028 0.005132935
-0.030434096 0.052681774 0.0056940904
-0.028047062 0.053176202 0.0056569641
-0.025943253 0.053420596 0.0056310417
-0.023227958 0.053948242 0.0055900514
-0.02061514 0.054093108 0.0054634418
-0.01841577 0.054069139 0.0052962108
-0.015894623 0.054414157 0.0053705191
-0.013163607 0.054823581 0.0054765763
-0.010872523 0.054688983 0.0051290607
-0.0082278783 0.054966882 0.0047431393
-0.0055820462 0.05519063 0.0046509951
-0.0033144865 0.055372316 0.0046259863
-0.0010568425 0.055506282 0.0048529105
0.0015732419 0.055670839 0.0050756792
0.0041320226 0.055966873 0.0051124254
0.0064281006 0.056393426 0.0052604163
0.009065439 0.056604791 0.0052313032
0.011702794 0.056816094 0.0052022347
0.013963379 0.056997195 0.0051772892
0.016462144 0.057045851 0.0051551247
0.019298697 0.056666791 0.0051454082
-0.035339803 0.04956007 0.0058453949
-0.033203088 0.050337683 0.0058002239
-0.030664094 0.050779279 0.005701161
-0.028039614 0.051021818 0.005483442
-0.02578673 0.051231556 0.0052907718
-0.023155356 0.051479325 0.0050519761
-0.020579603 0.051616628 0.0048327008
-0.018226434 0.051561434 0.0046334965
-0.015485083 0.05197262 0.0047393767
-0.012958116 0.052318752 0.0048136041
-0.010660154 0.052167729 0.0045500109
-0.008011953 0.052379899 0.0045208177
-0.0053637563 0.052592121 0.0044915807
-0.0030938666 0.052773964 0.0044665411
-0.00082398363 0.052955862 0.0044415006
0.0018242177 0.053168032 0.0044122934
0.0045294007 0.053518888 0.0044777365
0.0066940663 0.053893417 0.0045967884
0.009318985 0.054059099 0.0048195636
0.011961762 0.054270871 0.0047904179
0.014226989 0.054452401 0.0047654258
0.016761223 0.054690521 0.0049696984
0.01935981 0.054715846 0.0050604185
0.021650638 0.054856963 0.0051906137
0.024118695 0.054494891 0.0051833177
-0.039323378 0.04691653 0.0059720986
-0.037503798 0.047472853 0.0059374059
-0.03535587 0.047757808 0.005798501
-0.032767069 0.04805702 0.0052107638
-0.030149832 0.048322823 0.004846354
-0.027879952 0.048504718 0.0048212996
-0.025610067 0.04868662 0.0047962591
-0.023070579 0.048959248 0.0047658002
-0.020501524 0.049552575 0.0047236225
-0.018104669 0.05004907 0.0046863183
-0.015456469 0.050261237 0.0046571111
-0.012808274 0.050473463 0.0046278881
-0.010916704 0.050625037 0.0046070162
-0.0044853599 0.051140349 0.0045360662
-0.0029721032 0.051261596 0.0045193778
-0.00070222019 0.051443499 0.0044943234
0.0019459813 0.051655665 0.0044651153
0.0045941742 0.051867895 0.0044358922
0.0068640658 0.052049737 0.0044108536
0.0095427064 0.051883854 0.0043948879
0.012221344 0.051717974 0.0043788785
0.014491232 0.051899817 0.004353839
0.016761109 0.052081715 0.0043287994
0.019409308 0.052293941 0.0042995913
0.022027347 0.052466121 0.0044943951
0.024572171 0.052555189 0.0051652864
0.026966814 0.05248085 0.0052317502
-0.042155582 0.044415716 0.0060843229
-0.039867096 0.044927418 0.0059639784
-0.037456952 0.045007542 0.0054411022
-0.035233144 0.045251798 0.0049973056
-0.032666687 0.045533501 0.0049662767
-0.030155046 0.046495862 0.0049114404
-0.027758185 0.04699235 0.0048741363
0.014612993 0.05038745 0.0044066766
0.016882876 0.050569352 0.0043816222
0.019561525 0.050403412 0.0043656575
0.022327995 0.050092332 0.0043541016
0.024705395 0.05011807 0.004619645
0.027149668 0.050295208 0.0051261429
0.029640259 0.050673861 0.0052742437
0.031931158 0.050478455 0.0052624559
0.033845291 0.050252855 0.0052548358
-0.046162825 0.040810142 0.0062454967
-0.044445023 0.041453131 0.0062085493
-0.042486135 0.042241681 0.0061644381
-0.039989121 0.042452063 0.0055361474
-0.037289932 0.042423211 0.0051148375
-0.035122238 0.042692032 0.0050875396
-0.033295173 0.043250684 0.005052668
0.027710307 0.047974482 0.0046356646
0.029977862 0.048156224 0.0046106549
0.032186408 0.048284307 0.0049215583
0.034681115 0.048349164 0.0053157909
0.036956143 0.047722947 0.0053194771
-0.04686534 0.039069559 0.0063132402
-0.044549581 0.039438166 0.006169972
-0.042388886 0.039716095 0.0053641247
-0.039918981 0.040081531 0.0052197259
-0.037546482 0.040880524 0.0051718419
0.028064927 0.045281637 0.0044785012
0.030232623 0.045550458 0.0044512041
0.03250251 0.045732357 0.0044261497
0.035055421 0.045868956 0.0049007228
0.03759997 0.046006009 0.0053753657
0.039770231 0.045963325 0.0053591272
0.04165921 0.045825958 0.0053485604
-0.051073715 0.035868987 0.0064616269
-0.049183957 0.036362227 0.0062856544
-0.046948839 0.036702741 0.0059979297
-0.044448666 0.036891941 0.0054537579
-0.042346515 0.037669074 0.0053254981
-0.040768653 0.038339119 0.0052887099
0.028377306 0.043372266 0.00454392
0.030503122 0.043136679 0.0045349374
0.032715604 0.043085676 0.004518671
0.03498549 0.043267574 0.0044936314
0.037583619 0.043443769 0.0047162566
0.040159754 0.043608472 0.0050228713
0.042582557 0.044062484 0.0054038111
0.044624247 0.043537058 0.0054058181
-0.053363141 0.032906346 0.0065858532
-0.051598884 0.03382865 0.0065385839
-0.049201325 0.034115653 0.0059083626
-0.046619456 0.034160104 0.0054854089
-0.044792399 0.034718756 0.0054505384
0.035476882 0.040947575 0.0045722034
0.037846778 0.040833056 0.0045569306
0.040494967 0.041045282 0.0045276927
0.042927366 0.04164204 0.0049535092
0.04537496 0.041521952 0.0053880541
0.047358327 0.040976945 0.0054746279
-0.055923969 0.03017465 0.0067040715
-0.05399251 0.031018451 0.006658229
-0.051574413 0.031349484 0.0059595834
-0.049091522 0.031652842 0.0055949297
-0.047152132 0.032500174 0.0055488404
0.038310148 0.038756132 0.0046270834
0.040677618 0.038776703 0.0046069855
0.042947508 0.038958542 0.0045819459
0.045517474 0.039129712 0.0048883809
0.048002161 0.039260015 0.0055305175
0.049569841 0.038627639 0.0055402061
-0.056284837 0.028377173 0.0067710448
-0.054006383 0.028859003 0.0062349178
-0.051448368 0.029111639 0.0057046833
-0.049761172 0.029437102 0.0056792675
0.040975075 0.036973935 0.0046687322
0.043130152 0.036690023 0.0046612388
0.045778368 0.036902197 0.0046320315
0.048210684 0.037012976 0.0054976307
0.050358023 0.037080158 0.0055888621
-0.058110029 0.02530021 0.0068955543
-0.056097373 0.025943292 0.0065226248
-0.053614601 0.026355367 0.005897548
-0.051538222 0.02707489 0.0057779327
0.043754611 0.034609072 0.0047302237
0.045991451 0.034255505 0.004724537
0.048578363 0.034441058 0.0049469322
0.051049255 0.034582414 0.0056096129
0.053470321 0.034139846 0.0056681195
-0.059838794 0.02228147 0.0070171859
-0.058392368 0.023155287 0.0069742464
-0.055924416 0.02341916 0.0060274145
-0.053837065 0.024100091 0.0059026619
0.046790332 0.031764526 0.0048067011
0.048852738 0.031821053 0.0047878213
0.051321719 0.03206775 0.0050317431
0.053764559 0.032073341 0.005639228
0.055681847 0.031790547 0.0057336837
-0.060006812 0.020600498 0.0070784334
-0.05829623 0.020916838 0.006608407
-0.056065395 0.021300111 0.0060206214
0.047491685 0.029809328 0.0048705591
0.049035382 0.029552471 0.0048671141
0.051305279 0.029734371 0.0048420746
0.053841598 0.029911028 0.0052319607
0.056325689 0.030073553 0.0057895882
0.057893358 0.029441237 0.0057992628
-0.060241751 0.018317617 0.0069615031
-0.058192726 0.018296769 0.0061449958
-0.056498282 0.019320443 0.0060946392
0.047643896 0.027918855 0.0049366392
0.049449958 0.027556183 0.0049348054
0.051518366 0.027087687 0.0049345959
0.054149665 0.027294993 0.0049682315
0.05647178 0.027664563 0.0057740947
0.058537185 0.027724303 0.0058551366
-0.062276874 0.014885544 0.0073005036
-0.06058998 0.015716415 0.0069235638
-0.058445781 0.015764957 0.0062372014
0.052109785 0.02447133 0.0050229039
0.054379661 0.024653228 0.0049978793
0.056972772 0.025121333 0.0053238487
0.059287854 0.025308449 0.0059350254
0.061331902 0.024411133 0.0059502749
-0.062637292 0.012796545 0.0072666472
-0.060309641 0.013243311 0.0065241903
-0.058614485 0.014077065 0.0062986612
0.052609861 0.022989228 0.005071573
0.054925404 0.022604 0.0050663827
0.05721052 0.022596816 0.00504795
0.059593111 0.02275826 0.0059399521
0.06176671 0.022778481 0.0060048727
-0.064377204 0.01035904 0.0074788723
-0.062407151 0.010715539 0.0070331218
-0.060350362 0.011045903 0.0064208275
0.055849466 0.020585097 0.0051306887
0.057393171 0.020328237 0.0051272428
0.059870739 0.020513397 0.0056840833
0.062302001 0.020604344 0.0060778903
-0.064668506 0.0077689937 0.0075734966
-0.062278789 0.0080729499 0.0067301067
-0.060458191 0.0086018564 0.0065087285
0.057867158 0.017987881 0.0052067023
0.060094133 0.017953308 0.0054565519
0.062514663 0.017976388 0.0060927626
0.064341746 0.01764123 0.0061667329
-0.066213347 0.0049062679 0.007688066
-0.064557284 0.0052281669 0.0075518657
-0.062214945 0.0054860068 0.0066340975
0.058545534 0.015473629 0.005290661
0.060089238 0.015216769 0.005287216
0.062585302 0.01541643 0.0057600001
0.064866997 0.015490679 0.0062390184
-0.068088479 0.0022926563 0.0077964813
-0.066611737 0.0027899684 0.0077667134
-0.064497203 0.0029536369 0.0070764683
-0.062404078 0.0032135625 0.0067165531
0.060358852 0.013050303 0.0053621605
0.062843442 0.013156463 0.0055882214
0.065255523 0.013356226 0.0063118665
0.066823207 0.012723921 0.0063215559
-0.067916676 0.00015888886 0.0078710699
-0.06639953 0.00015416226 0.0078588305
-0.064358674 0.00029806033 0.0068363864
-0.06261351 0.00069158984 0.0068080658
0.061072014 0.010576898 0.0054443888
0.062840618 0.010579254 0.0055068461
0.065233923 0.010621659 0.0062092757
0.067143679 0.010627318 0.0063935975
-0.067694366 -0.0026023986 0.0079675727
-0.066212289 -0.0024874278 0.007840164
-0.064145595 -0.0023486314 0.0069288779
-0.062693208 -0.0014711686 0.0068857186
0.062967956 0.00783672 0.0055264821
0.065432198 0.0080517456 0.0060823662
0.067563772 0.0082355114 0.0064753229
-0.067512453 -0.0048617069 0.008046547
-0.066080175 -0.0047602542 0.0076976744
-0.063962936 -0.0046171434 0.0070081707
0.063592404 0.0057557635 0.005595468
0.065666683 0.0057861493 0.0059943581
0.067915797 0.0058816108 0.0065562716
-0.06730023 -0.0074975099 0.008138679
-0.065930933 -0.0072978921 0.0078474656
-0.063780285 -0.006885726 0.0070874635
0.064059436 0.003738323 0.0056634741
0.065928288 0.0035154922 0.005822937
0.068334669 0.0033706019 0.0066422615
0.069932677 0.0023617307 0.0066651246
-0.067088015 -0.01013338 0.008230811
-0.06556233 -0.0098709306 0.0080088452
-0.063567214 -0.0095324116 0.0071799848
0.066194542 0.00086510193 0.0057483669
0.068546884 0.00073479395 0.0067344084
0.070053935 0.00085554738 0.0067177685
-0.066906117 -0.012392622 0.0083097704
-0.065448336 -0.012291992 0.008071891
-0.063354097 -0.012179091 0.0072724763
0.066407643 -0.0017815211 0.0058408733
0.06872879 -0.001524513 0.0068133827
0.070235826 -0.001403701 0.0067967419
-0.066724218 -0.014651931 0.0083887447
-0.065290861 -0.014563854 0.008040309
-0.063171454 -0.014447672 0.0073517701
0.066590294 -0.0040500956 0.0059201661
0.068910673 -0.0037837615 0.0068923421
0.070417739 -0.0036630095 0.0068757022
-0.066511989 -0.017287735 0.0084808767
-0.065060027 -0.017193809 0.0082154917
-0.06295836 -0.017094359 0.0074442914
0.066803381 -0.0066967825 0.0060126875
0.069122903 -0.0064195679 0.0069844592
0.070629962 -0.0062988158 0.0069678342
-0.066330105 -0.019546986 0.0085598361
-0.064792715 -0.019802792 0.0085563827
-0.062745273 -0.019740986 0.007536782
-0.061232019 -0.019619735 0.0075200638
0.065185785 -0.010251256 0.0061524473
0.067016475 -0.0093434695 0.0061051939
0.069335118 -0.0090554319 0.0070766062
0.070842177 -0.0089346804 0.0070599662
-0.064610824 -0.0220621 0.008635358
-0.062490795 -0.021966603 0.0079474859
-0.061049368 -0.021888318 0.0075993575
0.065307543 -0.011763623 0.0062052989
0.067199141 -0.011612047 0.0061844867
0.069517024 -0.011314679 0.0071555804
0.071024083 -0.011193926 0.0071389247
-0.064021841 -0.024667704 0.0087233065
-0.062277999 -0.02460967 0.0080398917
-0.060836274 -0.024535002 0.0076918639
0.065520637 -0.014410301 0.0062978202
0.06741222 -0.01425873 0.006276994
0.069729246 -0.013950484 0.0072476827
0.07123629 -0.013829735 0.0072310567
-0.063809626 -0.027303569 0.0088154385
-0.061994981 -0.02720264 0.0084634349
-0.06030836 -0.027308658 0.0077863261
0.06555979 -0.017261146 0.0063990094
0.067570984 -0.016887272 0.0065360572
0.069941446 -0.016586354 0.0073398286
-0.065450907 -0.030466836 0.0089415209
-0.063902713 -0.029679623 0.0089008212
-0.061743896 -0.029411858 0.008873635
-0.059452116 -0.029312965 0.0082509592
-0.057287287 -0.029505188 0.0083401585
0.065538064 -0.019355837 0.006473803
0.067726307 -0.019144813 0.0066985711
0.07012336 -0.018845605 0.0074188039
-0.065390259 -0.031219952 0.0089678364
-0.063883215 -0.0310992 0.0089512104
-0.061373618 -0.031656064 0.0089505184
-0.059271105 -0.031866565 0.0089408215
-0.057533085 -0.031474657 0.0089126462
0.065720715 -0.021624418 0.0065530958
0.067908764 -0.021411018 0.0067777727
0.070335582 -0.021481466 0.007510921
0.07210391 -0.021466063 0.0074959025
-0.061095517 -0.034773856 0.0090592643
-0.059058879 -0.034502372 0.0090329535
-0.057238288 -0.034508083 0.0090182666
0.065817848 -0.024407247 0.0066514108
0.068203695 -0.024089204 0.0066205924
0.070657462 -0.024164388 0.0066031851
0.072273821 -0.022621464 0.0065349834
-0.063167185 -0.036852781 0.0091502406
-0.061137572 -0.03694278 0.0091368733
-0.058580667 -0.036810663 0.0086943032
-0.056048557 -0.036709003 0.0080862558
-0.054504853 -0.036965862 0.0080827512
0.065768585 -0.02694805 0.006742307
0.068416789 -0.026735887 0.0067130988
-0.06252335 -0.038569715 0.0092061283
-0.060977757 -0.039580353 0.0086836778
-0.058512665 -0.039444178 0.0084706461
-0.055865906 -0.038977586 0.0081655495
-0.053803504 -0.038921062 0.0081466688
0.064264044 -0.029542098 0.006846956
0.065951236 -0.02921663 0.0068215998
0.068291664 -0.02885998 0.0067897467
-0.060611352 -0.042301059 0.0093233623
-0.058333032 -0.041891068 0.0091900527
-0.055874191 -0.04163938 0.0086606685
-0.053382937 -0.041442372 0.0082330313
-0.051524412 -0.0418262 0.0082314676
0.062472519 -0.033300728 0.0069954582
0.063971527 -0.032142788 0.0069419984
0.066087238 -0.031765688 0.0069112685
-0.057577744 -0.043479126 0.0093405014
-0.055633307 -0.044081241 0.0093460381
-0.053111248 -0.044015262 0.0086559551
-0.050742541 -0.043970671 0.0083014611
0.062563844 -0.034435038 0.0070350971
0.064198226 -0.034467172 0.0070229089
0.065832421 -0.034046277 0.0069945231
-0.054867994 -0.046185542 0.0094147194
-0.052851871 -0.04617957 0.0091756489
-0.05033898 -0.046145461 0.0083756233
-0.047777757 -0.046035342 0.0083507337
-0.046116646 -0.046568204 0.0083560934
-0.054169524 -0.048132677 0.0094783418
-0.052541606 -0.048656866 0.0094836978
-0.050109502 -0.048578713 0.0090607675
-0.047508139 -0.048201818 0.0084256781
-0.045994885 -0.048080571 0.0084089609
-0.051927678 -0.050858539 0.0095570777
-0.050006088 -0.05108133 0.0094492259
-0.047560431 -0.050898615 0.0087222839
-0.045403477 -0.050696924 0.0084973285
-0.049507141 -0.053292196 0.0096239643
-0.047383472 -0.053396482 0.0091099683
-0.045019548 -0.053438663 0.0085918102
-0.049072333 -0.054924838 0.0096785314
-0.047047634 -0.055857491 0.0095617631
-0.044678755 -0.055711873 0.0087700477
-0.042911787 -0.055634513 0.008652742
0.05358927 -0.048972595 0.0086268764
0.055096325 -0.048851844 0.0086102514
0.05660338 -0.048731085 0.0085936254
-0.046046652 -0.057966858 0.0097621055
-0.044238705 -0.058123186 0.0094799967
-0.041820385 -0.058060516 0.0088636624
-0.039232984 -0.058764525 0.0087341145
0.051510591 -0.051413003 0.0087307813
0.053058784 -0.050625734 0.0086900815
0.055115823 -0.050271422 0.0086606406
0.056664012 -0.049484212 0.0086199408
-0.043373208 -0.059773792 0.009804599
-0.041581359 -0.060250185 0.009695706
-0.039143596 -0.060462907 0.0090667978
-0.03686887 -0.060541231 0.0087780599
-0.035062816 -0.060903843 0.0087761944
0.048922915 -0.054174252 0.0078496113
0.050609842 -0.053070009 0.0087971641
0.053138915 -0.052798431 0.008766816
0.054819185 -0.052474327 0.0087415129
-0.040930726 -0.061851934 0.0098586278
-0.038769405 -0.062611632 0.0098679988
-0.036370818 -0.06276612 0.0093535548
-0.034321297 -0.06258779 0.0089413095
-0.032610275 -0.062990583 0.0088304495
0.046835687 -0.056624729 0.0079539455
0.048390239 -0.055834245 0.0079131173
0.050791703 -0.055728655 0.0085776551
0.053160109 -0.055154838 0.0088505615
0.054767236 -0.054183871 0.00880282
-0.035875425 -0.064984009 0.0099288067
-0.033824842 -0.064876743 0.0096353199
-0.031503625 -0.064986251 0.008969482
-0.028961923 -0.065742493 0.0088986084
0.043470018 -0.059748452 0.008092708
0.045918901 -0.05865683 0.008100573
0.048379127 -0.058253836 0.008499681
0.050619502 -0.058137551 0.008977551
-0.033549581 -0.066869363 0.0099769412
-0.031046569 -0.067200072 0.009718067
-0.028453453 -0.067189328 0.0090571819
-0.02633545 -0.067625016 0.008944164
0.041242536 -0.061639339 0.0081782974
0.04355241 -0.061499219 0.0082544824
0.045992922 -0.060965117 0.0088431677
0.048368789 -0.060665414 0.0090859653
0.04991699 -0.059878148 0.0090452787
-0.03032499 -0.068771146 0.010018274
-0.028126737 -0.069346488 0.0099207135
-0.025942296 -0.069498874 0.009591422
-0.02355206 -0.069462575 0.0090869293
-0.021030337 -0.069673419 0.0089737102
0.037608352 -0.064974815 0.0083267754
0.039333224 -0.064329185 0.0082896901
0.041396745 -0.064029992 0.0083622364
0.043826196 -0.06383612 0.0090484181
0.046120506 -0.062961534 0.0091861319
-0.025388073 -0.071217842 0.010065024
-0.023123551 -0.07139723 0.009719328
-0.020686327 -0.071491338 0.0095359748
-0.018301221 -0.071193084 0.0091874758
-0.01596004 -0.071169823 0.0089855427
-0.014038029 -0.071396351 0.0089778844
0.032494605 -0.06766779 0.0084644984
0.034134824 -0.067231886 0.0084355753
0.036692429 -0.0667402 0.0085401181
0.039153878 -0.066560663 0.0089543452
0.041221179 -0.066324346 0.0091458159
0.043386452 -0.065896586 0.0093130125
-0.020446816 -0.073247388 0.010096903
-0.017832363 -0.073306896 0.0099525237
-0.01576348 -0.073210806 0.0097237313
-0.013126248 -0.073140532 0.0092827333
-0.010450556 -0.073392116 0.0090196338
-0.0082713598 -0.073434934 0.0090033375
-0.0055020326 -0.073376089 0.0089785988
-0.0030277683 -0.07336808 0.0089580445
-0.00055350474 -0.07336013 0.00893752
0.02025377 -0.071692877 0.0087079657
0.022145336 -0.071541302 0.0086870939
0.024384782 -0.070981294 0.0086488426
0.026726417 -0.070508324 0.0086128619
0.029350366 -0.070085824 0.0085763754
0.031846408 -0.069536768 0.0087865498
0.034369096 -0.06931477 0.0090415413
0.036687672 -0.068844363 0.0092504108
0.038843654 -0.068344943 0.0094373534
-0.015228407 -0.07495153 0.010114887
