# .PCD v0.7 - Point Cloud Data file format
VERSION 0.7
FIELDS x y z
SIZE 4 4 4
TYPE F F F
COUNT 1 1 1
WIDTH 1271
HEIGHT 1
VIEWPOINT 0 0 0 1 0 0 0
POINTS 1271
DATA ascii
-0.028256835 -0.09312097 0.013093084
-0.026469685 -0.094481237 0.013093228
-0.033403337 -0.084231719 0.012242731
-0.031672087 -0.086059235 0.012370344
-0.030148247 -0.087917678 0.012762275
-0.028354703 -0.089683726 0.013195025
-0.026606193 -0.091665342 0.013175434
-0.024818998 -0.093025565 0.013175579
-0.023031792 -0.09438581 0.013175722
-0.030342916 -0.085363515 0.012279255
-0.028498676 -0.086919568 0.012274793
-0.026755888 -0.088093601 0.012279529
-0.02511044 -0.089864165 0.012627859
-0.023210203 -0.091415979 0.013118681
-0.021711253 -0.093221284 0.013241579
-0.019962789 -0.095202938 0.013221988
-0.092829846 -0.0078683067 0.01318196
-0.092075877 -0.0091678463 0.013160012
-0.091133446 -0.010792309 0.013132591
-0.023656595 -0.088601798 0.012335887
-0.021560919 -0.090142377 0.012337702
-0.019766631 -0.091751687 0.012775186
-0.017982006 -0.093456157 0.013320804
-0.016233549 -0.09543781 0.013301212
-0.014379651 -0.097158708 0.013291961
-0.09325929 -0.0047110305 0.013267733
-0.092420839 -0.0063289618 0.013238075
-0.091166511 -0.0079730367 0.013217275
-0.018159499 -0.090826146 0.012395723
-0.016048178 -0.092154585 0.012515506
-0.014425545 -0.093870781 0.013015298
-0.012865482 -0.095722996 0.013227588
-0.011085899 -0.0979454 0.013344383
-0.01414402 -0.091705054 0.012462028
-0.012948356 -0.092615098 0.01246213
-0.011275842 -0.09427952 0.012867393
-0.0093125291 -0.09607967 0.013134082
-0.0079781916 -0.098141156 0.013410384
-0.007655337 -0.094740249 0.012687012
-0.0061403015 -0.096266583 0.013134492
-0.0045403102 -0.098045722 0.013492879
-0.09232565 0.0045313416 0.013569526
-0.091545612 0.0026935234 0.013531886
-0.0061260713 -0.093670808 0.012588058
-0.0043163905 -0.094656959 0.012933609
-0.0025595231 -0.096298955 0.013591693
-0.00081106293 -0.098280601 0.013572073
-0.092482246 0.0077608563 0.013663796
-0.002355702 -0.09315329 0.013358197
-0.00057878694 -0.094552219 0.013690507
0.0011721668 -0.096649334 0.013445044
0.0026654352 -0.09870892 0.013067733
-0.00071414583 -0.09223783 0.012756815
0.0011300865 -0.093793869 0.012752324
0.002834005 -0.095591515 0.012737286
0.004296212 -0.097248718 0.012720901
0.0054660211 -0.098574445 0.012707781
0.0054455139 -0.093877867 0.012849697
0.0066153272 -0.095203593 0.012836576
0.0080775302 -0.096860811 0.012820191
0.0098322276 -0.098849431 0.012800541
0.006478264 -0.092377797 0.012919084
0.0082588568 -0.093950681 0.012912625
0.010065299 -0.095107876 0.012919359
0.011819984 -0.097096503 0.012899708
0.013301771 -0.099157386 0.012871531
0.01168292 -0.094270699 0.012982185
0.013476477 -0.09563569 0.012982338
0.015020197 -0.097599253 0.013584019
0.016592203 -0.099376619 0.013941776
0.015081146 -0.095006406 0.013038553
0.01688762 -0.096163556 0.013045287
0.018612027 -0.097919099 0.013476778
0.018505245 -0.095326364 0.013108144
0.020620361 -0.096555166 0.013119845
0.022384737 -0.098387912 0.013105122
0.0225401 -0.095893532 0.013184364
0.024362795 -0.096790843 0.013199332
0.025854137 -0.09798035 0.013197821
0.0319351 -0.095859192 0.0134029
0.032928973 -0.094982721 0.013452483
0.034575779 -0.093677796 0.013530156
0.036521439 -0.092600457 0.013607867
0.03832791 -0.0937576 0.013614601
0.04038813 -0.092277564 0.013707194
0.04207037 -0.093993306 0.013694118
0.042557076 -0.091206796 0.013789868
0.04405814 -0.092240386 0.013793285
0.045675758 -0.091403194 0.013856111
-0.071647264 -0.051205467 0.011357808
-0.070179909 -0.052868508 0.011341357
-0.068419084 -0.054864153 0.011321615
-0.066658214 -0.056859769 0.011301874
-0.065190859 -0.058522813 0.011285452
-0.063723452 -0.060185812 0.011269001
-0.062549576 -0.061516244 0.01125584
-0.054919247 -0.070163973 0.011170324
-0.053745363 -0.071494408 0.011157162
-0.051984534 -0.073490061 0.01113745
-0.079924092 -0.037805188 0.011572428
-0.078495689 -0.040093988 0.011536075
-0.076477394 -0.042033348 0.011273836
-0.074726827 -0.043901283 0.011174366
-0.073158085 -0.046057299 0.011256491
-0.071841985 -0.047686636 0.01101518
-0.070398755 -0.049580671 0.010935573
-0.068634793 -0.051579785 0.010915817
-0.066870883 -0.053578924 0.010896029
-0.065426603 -0.055474348 0.010816457
-0.063857265 -0.057010885 0.010543399
-0.062220868 -0.059005734 0.01058902
-0.060393561 -0.060821563 0.010689991
-0.058406048 -0.062811732 0.01031177
-0.055319861 -0.067207254 0.01096478
-0.053703323 -0.068296313 0.010654674
-0.052171454 -0.070238382 0.010731338
-0.050379075 -0.072166026 0.010881175
-0.04860222 -0.07412798 0.010946195
-0.046967182 -0.075903796 0.011055297
-0.045320172 -0.077469848 0.011171069
-0.044120293 -0.078383066 0.011171166
-0.089081325 -0.023407081 0.011796919
-0.087907404 -0.024737475 0.011783758
-0.083798766 -0.02939395 0.011737725
-0.082624882 -0.030724384 0.011724563
-0.081255145 -0.033233892 0.011680163
-0.07979729 -0.034749914 0.011417788
-0.078418598 -0.036515627 0.011062613
-0.076698616 -0.03856707 0.010873434
-0.074907526 -0.040467389 0.010407021
-0.072981015 -0.042463753 0.010257667
-0.071547598 -0.044189632 0.010071724
-0.070112862 -0.04591712 0.009885787
-0.068341739 -0.047924433 0.0098659433
-0.066570565 -0.049931712 0.0098461015
-0.064824216 -0.051979121 0.0097132912
-0.063396677 -0.053733151 0.0094707729
-0.061919022 -0.055407859 0.0094542205
-0.060480636 -0.057712752 0.0094176577
-0.058372602 -0.05942712 0.0094144642
-0.056934215 -0.061732013 0.0093779014
-0.054786965 -0.062816232 0.0093947183
-0.052987482 -0.065039687 0.0096191289
-0.051811107 -0.066659272 0.0096807042
-0.050021164 -0.06862022 0.0097738579
-0.048357621 -0.07048817 0.010061514
-0.046641804 -0.072314985 0.0099624861
-0.045092363 -0.074247874 0.010384496
-0.043595649 -0.075887054 0.010531181
-0.041917969 -0.077730738 0.010908344
-0.040161058 -0.079386294 0.011232427
-0.038310342 -0.080947831 0.011227913
-0.089512266 -0.020238664 0.011882959
-0.087751441 -0.022234313 0.011863217
-0.086284086 -0.023897354 0.011846795
-0.084816732 -0.025560398 0.011830344
-0.083055861 -0.027556006 0.011810603
-0.081388108 -0.029644217 0.011452314
-0.079716995 -0.031737771 0.011094037
-0.077758364 -0.033010688 0.010433636
-0.076400951 -0.034813717 0.0099656535
-0.074686892 -0.036889412 0.009720033
-0.072913699 -0.038899064 0.0097001698
-0.07114052 -0.040908705 0.0096802767
-0.069997616 -0.04287862 0.009646995
-0.06851995 -0.044553328 0.0096304724
-0.066746771 -0.046562973 0.0096106092
-0.06515871 -0.048497666 0.0095886709
-0.063535146 -0.050877478 0.0095541235
-0.062353022 -0.052217241 0.009540882
-0.052009389 -0.063940153 0.0094249537
-0.050196886 -0.065319575 0.0094251307
-0.0484237 -0.067329228 0.0094052376
-0.046946041 -0.06900394 0.0093886554
-0.045133598 -0.070383392 0.0093888314
-0.043360364 -0.072393 0.0093689691
-0.041555498 -0.074305475 0.0095751239
-0.039869361 -0.076070771 0.010088797
-0.038520221 -0.078361206 0.010745536
-0.036700871 -0.080157988 0.011177924
-0.034926161 -0.082103312 0.011271209
-0.032883748 -0.083614096 0.011272724
-0.03132651 -0.08484301 0.01127153
-0.091039173 -0.014488297 0.012021933
-0.089278348 -0.016483946 0.012002191
-0.087517522 -0.018479591 0.011982479
-0.085854985 -0.020557186 0.011624423
-0.084483258 -0.022306748 0.011269604
-0.082837351 -0.023930689 0.01083393
-0.0811003 -0.025857178 0.010573125
-0.079376765 -0.027907221 0.010384131
-0.077673748 -0.029983493 0.010110395
-0.076122008 -0.031484738 0.0098506343
-0.075101301 -0.033383742 0.0098166848
-0.073347703 -0.035708446 0.0097868014
-0.042021208 -0.071212083 0.0094357375
-0.039685275 -0.072895631 0.0094388183
-0.03786692 -0.074781768 0.0095237708
-0.036556307 -0.076706983 0.0098960698
-0.034713421 -0.07836277 0.010080955
-0.033274565 -0.080563769 0.010641363
-0.031362303 -0.082212128 0.010986519
-0.029703196 -0.08400289 0.011334537
-0.028226091 -0.085509479 0.011323076
-0.026122998 -0.087055445 0.011324907
-0.090511784 -0.011066178 0.012137934
-0.089376867 -0.013022372 0.012104872
-0.087432295 -0.015019977 0.011946374
-0.085752517 -0.01690286 0.011292826
-0.084083907 -0.018984778 0.010934778
-0.082721226 -0.020750051 0.010523641
-0.081239551 -0.022248464 0.010155142
-0.079464264 -0.024188541 0.009994437
-0.077840693 -0.026568351 0.0099598896
-0.076658525 -0.027908079 0.009946648
-0.036170483 -0.073794812 0.0094928984
-0.034666661 -0.075049423 0.0094896751
-0.033134576 -0.076767772 0.0096160229
-0.03153972 -0.078659169 0.0098279072
-0.029885624 -0.080472797 0.010214272
-0.028096488 -0.082374677 0.010420416
-0.026309509 -0.084272034 0.010626648
-0.024516184 -0.086113706 0.01094592
-0.023038445 -0.087854058 0.011205314
-0.021545431 -0.089228474 0.011365023
-0.093212575 -0.0039853747 0.012290069
-0.09174522 -0.0056484165 0.012273618
-0.090401649 -0.0076177558 0.012245006
-0.089475416 -0.0095608458 0.012207522
-0.087500915 -0.01146229 0.011922683
-0.085798539 -0.013279676 0.011452128
-0.083945006 -0.015291134 0.010716399
-0.082333595 -0.017428188 0.010132979
-0.081190728 -0.019398136 0.010099697
-0.08034341 -0.02103314 0.010069755
-0.031875934 -0.075963221 0.0095265619
-0.030063484 -0.077342689 0.009526738
-0.027955493 -0.079057097 0.0095235743
-0.02618232 -0.081066735 0.009503711
-0.024650007 -0.082835749 0.0097714392
-0.022900855 -0.084561683 0.009873989
-0.021277182 -0.086514331 0.010452785
-0.019621968 -0.088336214 0.010936258
-0.017711179 -0.08973816 0.011104749
-0.016615937 -0.090795442 0.01143164
-0.093291633 -0.00021094726 0.012402641
-0.092176206 -0.0024800459 0.012359657
-0.090415336 -0.0044756527 0.012339916
-0.088759363 -0.0060465131 0.012187694
-0.087297939 -0.0076093213 0.011816781
-0.085570142 -0.0094908373 0.011199309
-0.083806343 -0.0115894 0.010498286
-0.082373798 -0.013720135 0.010244485
-0.081289977 -0.015912309 0.010203087
-0.024547597 -0.080220707 0.0095671695
-0.02336546 -0.081560478 0.009553927
-0.021501737 -0.083132938 0.009549398
-0.019454824 -0.084811866 0.0095459148
-0.017658645 -0.086557277 0.0097569665
-0.015921108 -0.088373117 0.010520453
-0.014381442 -0.090157628 0.011169138
-0.012656709 -0.091798663 0.011492902
-0.011099455 -0.093027592 0.011491679
-0.091951996 0.0011182702 0.01247393
-0.090181425 -0.00072092959 0.012459178
-0.088487983 -0.002757631 0.012214265
-0.086821027 -0.0043878653 0.011425104
-0.085233793 -0.0058817728 0.011041285
-0.083793238 -0.0078464588 0.010389667
-0.082512408 -0.010141404 0.010349721
-0.017514734 -0.084143214 0.009611058
-0.015689179 -0.085312605 0.0096179144
-0.013884823 -0.086848579 0.0097243134
-0.01235827 -0.088568464 0.010454071
-0.010958428 -0.090742931 0.01111944
-0.0091826702 -0.092520081 0.011551425
-0.0076763174 -0.093557313 0.011554875
-0.091192007 0.0052482085 0.012616769
-0.089947507 0.0030337973 0.01257841
-0.088321567 0.00096192368 0.012108496
-0.086509518 -0.0010320923 0.011261147
-0.084798604 -0.0028385541 0.010791156
-0.083649449 -0.0046922499 0.01048861
-0.082887553 -0.0060055475 0.010466412
-0.011907206 -0.085550793 0.0096982494
-0.010534147 -0.087232783 0.010012607
-0.0088539151 -0.088864468 0.010284303
-0.0073162541 -0.090741284 0.010536686
-0.0055927262 -0.092455611 0.011336279
-0.09264829 0.010114595 0.012730545
-0.091180898 0.0084515987 0.012714094
-0.089713544 0.0067885583 0.012697672
-0.088155016 0.0046866816 0.012002897
-0.086556278 0.0025942542 0.011420514
-0.084866911 0.00074419309 0.010768188
-0.083834074 -0.00088467798 0.010599745
-0.0087425029 -0.085539259 0.0097718444
-0.0072517432 -0.087003887 0.0097619714
-0.005535156 -0.08916568 0.0098791206
-0.0040337774 -0.091043532 0.010269945
-0.0024305398 -0.092635714 0.010703536
-0.090985991 0.011580524 0.012813484
-0.089321628 0.009999007 0.012603955
-0.087954588 0.0084341941 0.012009952
-0.086354241 0.0063477969 0.011427815
-0.084938258 0.0042460565 0.01072978
-0.083972588 0.0019709638 0.010683124
-0.00593219 -0.08613801 0.0098187495
-0.0038045307 -0.087537281 0.0098256068
-0.0020313426 -0.089546926 0.0098057436
-0.00055367855 -0.091221638 0.0097891903
-0.091084495 0.015042087 0.012916136
-0.089111581 0.013164149 0.012631966
-0.087682351 0.011734834 0.012036902
-0.086119227 0.010120098 0.011547629
-0.084702656 0.0080271587 0.010849842
-0.084032528 0.0060870061 0.010806525
-0.0021698524 -0.08669129 0.0098890932
-0.00030611228 -0.088263765 0.0098845651
0.0014158373 -0.090080366 0.0098693781
0.0029327613 -0.091124885 0.0098728053
-0.089123569 0.016788134 0.012903275
-0.087481245 0.014962592 0.012139397
-0.085392572 0.013181053 0.011323662
-0.084206983 0.011412281 0.010963905
-0.083796971 0.0098680705 0.010926586
0.0055718757 -0.089393131 0.0099863922
0.0068077459 -0.091224089 0.011210408
0.0086251637 -0.093138978 0.011944965
-0.089060411 0.020487294 0.012460957
-0.087362826 0.018461624 0.01221645
-0.085466273 0.016546832 0.011636262
-0.083903059 0.01493601 0.0110778
0.0068979445 -0.088422224 0.01004654
0.0086625833 -0.089905277 0.010685763
0.010347524 -0.091974787 0.011797734
0.012205355 -0.093597792 0.012013899
0.013938019 -0.09460444 0.01202355
-0.087162107 0.022217244 0.012223776
-0.085427396 0.020202909 0.012091702
-0.083768085 0.018380502 0.011328313
-0.082734704 0.016760398 0.011160146
0.010463072 -0.088565558 0.010291553
0.012238804 -0.090434492 0.010836986
0.013957465 -0.092277564 0.01171924
0.01581333 -0.093800358 0.011980109
0.017693622 -0.094840966 0.0121033
-0.086927339 0.025985152 0.012343453
-0.085224994 0.023961846 0.012099146
-0.083681285 0.02188123 0.011293507
-0.08274848 0.019924549 0.011255733
0.011992956 -0.087899566 0.010180342
0.013886955 -0.088948846 0.010303592
0.015738707 -0.090360537 0.010817932
0.017462378 -0.092329383 0.01144631
0.018984528 -0.094294019 0.012149785
0.020171395 -0.095415838 0.012143238
-0.086902238 0.029417446 0.013226396
-0.084925584 0.027750418 0.012443297
-0.083381191 0.025681021 0.011638004
-0.082283191 0.024007479 0.011390306
0.016129348 -0.087527417 0.010287396
0.017626647 -0.088887036 0.010280863
0.019313067 -0.090654947 0.011267006
0.020716397 -0.092400834 0.011846947
0.022114176 -0.094491117 0.012216243
0.023927012 -0.095652379 0.012223017
-0.085162975 0.031128386 0.013165666
-0.083039887 0.029331507 0.012159643
-0.08170142 0.027540833 0.011510899
0.01962563 -0.087273106 0.010376066
0.021382648 -0.088962413 0.010699101
0.022693271 -0.091086842 0.011475094
0.024118807 -0.092787258 0.012203106
0.025869835 -0.094727628 0.012296023
0.027630679 -0.096723288 0.012276281
-0.084501386 0.034036536 0.012754876
-0.082555547 0.032408182 0.012305837
-0.081307322 0.030926442 0.011872836
-0.080688812 0.029284608 0.011587185
0.021900477 -0.086309247 0.010457938
0.023417449 -0.087353736 0.010461425
0.02466226 -0.089411102 0.010973711
0.026224226 -0.091265641 0.011308411
0.027886931 -0.093079396 0.01217031
0.029625455 -0.094964169 0.012375772
-0.08253254 0.035795573 0.012742612
-0.080896951 0.034008157 0.011868542
-0.079862155 0.032395829 0.011700653
0.025347654 -0.086842686 0.010521572
0.026569037 -0.087552264 0.01052834
0.028083742 -0.08958292 0.011138664
0.029930945 -0.091539435 0.011819564
0.031620231 -0.09320505 0.012475293
-0.08229778 0.039563477 0.012862259
-0.080715105 0.03753132 0.012170161
-0.079455718 0.035533514 0.011805197
0.027895171 -0.086581327 0.010588459
0.029854747 -0.08795958 0.01077404
0.031918328 -0.089746833 0.011586356
0.033614982 -0.091445982 0.012574813
0.035121378 -0.092483178 0.012578264
-0.080387436 0.04131835 0.012626141
-0.079064474 0.039395161 0.011931347
0.031950209 -0.086499296 0.01068483
0.033726681 -0.088041082 0.011262961
0.035517134 -0.089921251 0.012164697
0.03698726 -0.091783985 0.012642656
-0.080152579 0.045091413 0.012745928
-0.078564361 0.043069225 0.012054304
-0.077717014 0.041434214 0.012024332
0.033659764 -0.085468166 0.01075566
0.035641842 -0.086427294 0.010954475
0.03717133 -0.088486157 0.011889149
0.038663313 -0.090366751 0.012624351
0.040206816 -0.091546975 0.0127244
-0.078328758 0.046850331 0.012174394
-0.076555565 0.044840675 0.012154501
0.037740964 -0.084966034 0.010865392
0.039053116 -0.086556576 0.011211442
0.040485851 -0.088700481 0.0122334
0.042383399 -0.09047246 0.012807334
-0.078132473 0.050001215 0.012274414
-0.076654762 0.048326537 0.012257892
-0.075177111 0.046651836 0.01224131
0.040967446 -0.084979437 0.010939709
0.042305384 -0.086996548 0.011910217
0.044326395 -0.088779725 0.012721664
0.045992576 -0.090466402 0.012891102
0.0477181 -0.09202002 0.0128839
-0.076432168 0.051797841 0.01299368
-0.074980818 0.049802713 0.012341389
-0.073503129 0.04812805 0.012324837
0.04286214 -0.084023282 0.011012524
0.044326205 -0.085249178 0.011565223
0.04622047 -0.08709462 0.012581619
0.047913011 -0.088891096 0.01298329
0.049380414 -0.090554103 0.012966839
-0.07550437 0.054770842 0.012679996
-0.074560933 0.053303901 0.012886086
-0.072972044 0.051574174 0.012441617
-0.0718095 0.049919352 0.012418325
0.04490649 -0.0826969 0.011100054
0.046386436 -0.083636969 0.011328233
0.048131287 -0.085443035 0.01236509
0.049575333 -0.087425187 0.013066228
0.051042739 -0.089088187 0.013049778
-0.073918566 0.056695048 0.012574949
-0.072440915 0.05502034 0.012558367
-0.071120821 0.053355575 0.012538459
0.048432186 -0.081969962 0.011203768
0.05001127 -0.083761983 0.012186666
0.051350173 -0.085522354 0.01276473
0.052705035 -0.087622263 0.013132687
-0.071909793 0.058466505 0.012675147
-0.070432134 0.056791797 0.012658594
-0.069443025 0.055400927 0.01263928
0.050736498 -0.080533437 0.011300655
0.051963862 -0.081966467 0.011785963
0.053321097 -0.084062561 0.01268303
0.054699827 -0.085863151 0.013232208
-0.071417972 0.061282445 0.012771886
-0.070235796 0.059942711 0.012758644
-0.068758145 0.058268007 0.012742062
-0.068206348 0.05696794 0.012715431
0.052706018 -0.079392165 0.011380812
0.053746667 -0.080757238 0.011792387
0.055108376 -0.082520537 0.012453496
0.056694623 -0.084104046 0.013331698
-0.069743976 0.062758647 0.012855384
-0.068561807 0.061418928 0.012842173
-0.067399323 0.059764069 0.01281888
0.053710409 -0.078506432 0.011430911
0.055266593 -0.078920767 0.011454409
0.056904182 -0.080624722 0.012107808
0.05885265 -0.08270593 0.012645755
-0.068061739 0.065092944 0.012965129
-0.066553071 0.063190341 0.012942369
-0.065705694 0.061555371 0.012912398
0.057236109 -0.077779494 0.011534596
0.058849733 -0.078997292 0.011807987
0.060871135 -0.080897562 0.012424861
-0.066317484 0.066971451 0.013062459
-0.064544283 0.064961798 0.013042566
0.060835022 -0.077328347 0.011631613
0.062535003 -0.079062209 0.011618417
-0.064308688 0.068742901 0.013162658
-0.062800027 0.066840306 0.013139897
0.063046508 -0.075931147 0.011725147
0.064543784 -0.077290751 0.011718615
-0.062969498 0.06992387 0.013229426
-0.061787378 0.068584107 0.013216184
0.065035604 -0.074474819 0.011815354
0.066217788 -0.075814553 0.011802113
0.066040002 -0.073589094 0.011865453
0.067891754 -0.074338324 0.01188564
0.069900498 -0.072566912 0.011985837
-0.059679843 -0.057199899 0.0084509719
-0.05641767 -0.06089709 0.0084143998
-0.055231381 -0.062241483 0.0084011173
-0.06923002 -0.042314112 0.0086811315
-0.067747213 -0.043994658 0.0086645139
-0.065967798 -0.046011265 0.0086445902
-0.06420815 -0.04834412 0.0086146109
-0.06304159 -0.050004713 0.0085912747
-0.061618034 -0.051908258 0.0085665062
-0.060115375 -0.053998172 0.0085379295
-0.058336008 -0.056014825 0.0085180048
-0.056556635 -0.058031473 0.0084980512
-0.055073779 -0.059711974 0.0084814336
-0.053590979 -0.061392508 0.0084648151
-0.051704369 -0.063143842 0.0084554115
-0.049360275 -0.064833231 0.0084584542
-0.047877472 -0.066513769 0.0084418366
-0.046394661 -0.068194315 0.0084252181
-0.075221464 -0.031461626 0.0088714436
-0.074185334 -0.033177495 0.0088434089
-0.072591767 -0.035118937 0.0088214353
-0.071148358 -0.037431855 0.0087847374
-0.069665551 -0.039112393 0.0087681189
-0.068182737 -0.040792931 0.0087515013
-0.066403329 -0.04280955 0.0087315477
-0.064451702 -0.044807747 0.008616087
-0.06269256 -0.046626583 0.0085197967
-0.061104208 -0.048166811 0.0082470421
-0.059643403 -0.050080381 0.0081672501
-0.057860941 -0.052100535 0.0081472807
-0.056078479 -0.054120682 0.008127342
-0.054531187 -0.056087747 0.0082035726
-0.052872509 -0.057540637 0.0079977801
-0.051281918 -0.059412893 0.0083280783
-0.049501024 -0.061431311 0.0083081024
-0.04795745 -0.063501351 0.0084312148
-0.046533629 -0.06532871 0.0085088704
-0.045050822 -0.067009248 0.0084922519
-0.043271452 -0.069025889 0.0084723281
-0.04115608 -0.070746228 0.0084691476
-0.039337311 -0.072130509 0.0084692724
-0.079730049 -0.022289641 0.0090451092
-0.078563482 -0.023950242 0.0090217721
-0.077100404 -0.025946988 0.0089951288
-0.075759806 -0.027872466 0.0089677861
-0.074470699 -0.029604299 0.0089451196
-0.072691336 -0.031620946 0.008925166
-0.070911966 -0.033637594 0.0089052413
-0.069132552 -0.035654206 0.0088852886
-0.067649744 -0.037334748 0.0088686701
-0.066216461 -0.039083939 0.0086264294
-0.064508766 -0.041207477 0.0082680359
-0.062757827 -0.04313254 0.0080556097
-0.060996875 -0.044761386 0.0077968379
-0.059508909 -0.046447761 0.0077801542
-0.057723366 -0.048471406 0.0077601695
-0.055937815 -0.050495051 0.0077401549
-0.054152265 -0.052518699 0.0077201403
-0.052664313 -0.054205071 0.0077034561
-0.051176351 -0.05589145 0.0076867724
-0.049390756 -0.057915058 0.0076667583
-0.047605205 -0.059938706 0.0076467739
-0.04620349 -0.062016442 0.0079497788
-0.044750679 -0.063469991 0.0079810387
-0.043051187 -0.065275639 0.0084798969
-0.041255642 -0.067248248 0.0085728783
-0.039476279 -0.069264896 0.0085529545
-0.037696909 -0.071281545 0.0085330009
-0.036139023 -0.072776347 0.0085237585
-0.034446742 -0.074152634 0.0085212151
-0.032873087 -0.075394481 0.0085199988
-0.080679901 -0.017150948 0.0091788955
-0.080126181 -0.018455543 0.0091521749
-0.078979336 -0.020432346 0.009118814
-0.077228829 -0.022477031 0.0089861397
-0.075534366 -0.024580421 0.0086280312
-0.07410571 -0.026322166 0.0083858967
-0.07261949 -0.02800661 0.0083692949
-0.070836 -0.030027924 0.0083492706
-0.069052465 -0.032049194 0.008329276
-0.06732025 -0.03413609 0.0080837449
-0.065858267 -0.035854872 0.0079542911
-0.064370319 -0.037541244 0.0079376372
-0.062584765 -0.0395649 0.0079176221
-0.060799215 -0.041588537 0.007897608
-0.059311256 -0.04327492 0.0078809243
-0.057981979 -0.044951297 0.0078608766
-0.056692231 -0.047262233 0.0078206798
-0.055521633 -0.048928626 0.0077972682
-0.049867347 -0.055336799 0.0077338936
-0.047715023 -0.05658723 0.007745815
-0.045919549 -0.0584522 0.0077308603
-0.04443159 -0.060138576 0.0077141766
-0.04294363 -0.061824944 0.0076974928
-0.04115808 -0.063848592 0.0076774783
-0.039342791 -0.065782294 0.0078832582
-0.037530221 -0.067713328 0.0080890544
-0.035707582 -0.069595568 0.0084078088
-0.034198295 -0.071184434 0.0086169336
-0.032715492 -0.072864972 0.0086003151
-0.030936124 -0.074881613 0.0085803913
-0.028820798 -0.076601997 0.0085772108
-0.02670547 -0.078322381 0.0085740294
-0.025519175 -0.079666771 0.008560718
-0.081411995 -0.013613119 0.0092692189
-0.080265149 -0.015589932 0.0092358273
-0.078574486 -0.01720636 0.0090258643
-0.077167854 -0.018840453 0.0084306728
-0.075441606 -0.020917395 0.0081852749
-0.07365606 -0.022941045 0.0081652598
-0.072168104 -0.024627417 0.0081486059
-0.070680141 -0.026313791 0.0081319213
-0.068894587 -0.028337441 0.0081119072
-0.065660618 -0.032682031 0.0080550611
-0.064384185 -0.034355037 0.0080339024
-0.06331937 -0.036014758 0.008008237
-0.041595094 -0.060635734 0.0077647623
-0.039472427 -0.062362086 0.0077615944
-0.037349753 -0.064088441 0.0077583971
-0.035564203 -0.066112086 0.0077383826
-0.034076244 -0.067798458 0.0077216988
-0.032588292 -0.06948483 0.0077050151
-0.03077955 -0.071414188 0.0079107834
-0.028962838 -0.073293328 0.0082294373
-0.027430605 -0.075255439 0.0085072648
-0.025697546 -0.077433541 0.008624291
-0.024214741 -0.079114072 0.0086076725
-0.022731937 -0.08079461 0.008591054
-0.020932844 -0.082495056 0.008581155
-0.019430311 -0.083859384 0.0085745919
-0.082658403 -0.0081383241 0.0094063412
-0.081622273 -0.0098541901 0.0093783056
-0.080197863 -0.012062078 0.0092442539
-0.078382112 -0.013922956 0.0088295881
-0.076889284 -0.015512432 0.0084585845
-0.0753631 -0.017099991 0.0083028283
-0.074073307 -0.019410899 0.0082626324
-0.072902702 -0.021077281 0.0082392208
-0.030565506 -0.067701027 0.0078059183
-0.028779959 -0.069724672 0.007785934
-0.026994409 -0.071748331 0.007765919
-0.025672914 -0.073792025 0.0079847118
-0.024121525 -0.075531527 0.0081025679
-0.022278709 -0.077235751 0.0082090674
-0.020983733 -0.079171866 0.0085806511
-0.019272715 -0.081329882 0.0086549073
-0.017483488 -0.083188429 0.0086400108
-0.015661443 -0.084520012 0.0086418223
-0.082843691 -0.0043175067 0.0095178764
-0.081749521 -0.0062909643 0.0094833756
-0.080158338 -0.0083202664 0.0093474714
-0.078505717 -0.010287032 0.0088119013
-0.076494679 -0.012250733 0.008423646
-0.07521829 -0.01392378 0.0084024873
-0.02505069 -0.071233653 0.0078265266
-0.024157915 -0.072245479 0.0078165047
-0.022332788 -0.073634528 0.0078166388
-0.020547241 -0.075658165 0.0077966535
-0.018924173 -0.077877425 0.0080171041
-0.017274959 -0.079701774 0.008416947
-0.015477584 -0.081568927 0.0087355338
-0.013698222 -0.083585568 0.0087155802
-0.011866271 -0.084759012 0.0087224189
-0.08337187 0.00079462689 0.0096606323
-0.082699381 -0.0011522743 0.0096171629
-0.081420623 -0.0028533828 0.0094284229
-0.080104113 -0.0046509197 0.0087928716
-0.078380115 -0.0067169308 0.0085477624
-0.076594561 -0.0087405797 0.0085277474
-0.075463489 -0.011041532 0.0084841875
-0.020726243 -0.073417187 0.0078604287
-0.019147122 -0.074663363 0.0078592151
-0.017076032 -0.076195315 0.0078607257
-0.015290478 -0.078218959 0.0078407116
-0.013765092 -0.080069721 0.0079628704
-0.011847583 -0.081633165 0.0085446723
-0.01019961 -0.083488457 0.0087995427
-0.0086905286 -0.084747426 0.0087963203
-0.083557114 0.0046154815 0.0097721685
-0.082621157 0.0026519203 0.0097343074
-0.081025496 0.0005205241 0.009039511
-0.079630889 -0.0012231438 0.0086853337
-0.078420587 -0.0029830334 0.0086600175
-0.07703162 -0.0055277576 0.0086150309
-0.01513236 -0.075680681 0.0079213334
-0.01355325 -0.07692685 0.0079200901
-0.011779744 -0.078121535 0.0079249311
-0.010237156 -0.079956643 0.0080050686
-0.0083318911 -0.081554905 0.0085261315
-0.006700993 -0.083391361 0.0088834753
-0.0049117608 -0.085249901 0.008868549
-0.0030634627 -0.0861599 0.0088837557
-0.083570957 0.0077906428 0.0098680947
-0.082531713 0.0061591151 0.0096997572
-0.080819465 0.0043061851 0.0090478314
-0.079254739 0.0022570239 0.0087995576
-0.078282341 -3.3932549e-05 0.0087526329
-0.0082953777 -0.078447163 0.0079957489
-0.0064834571 -0.080047749 0.0079891663
-0.0046903216 -0.081816234 0.0085330121
-0.0032418226 -0.083926663 0.0089473277
-0.0014624503 -0.085943311 0.0089274039
3.3533375e-05 -0.08741302 0.0089174695
0.0018391676 -0.089008085 0.0089109112
0.0036185344 -0.091024734 0.0088909874
-0.083334565 0.011584898 0.0099885985
-0.082495272 0.0096806129 0.009839084
-0.080867119 0.007963472 0.0092081092
-0.079282008 0.0060810908 0.0089148581
-0.078342743 0.0041107517 0.0088768816
-0.0044870395 -0.078687005 0.008076638
-0.0026751261 -0.080287598 0.0080700554
-0.001479369 -0.082407504 0.0084337583
0.00035373442 -0.084097624 0.0085635008
0.0020536971 -0.085791431 0.0086798314
0.0031829986 -0.087823004 0.008977945
0.0044563822 -0.089807764 0.0089472532
0.0054766983 -0.091776632 0.0089111915
-0.082926735 0.014733502 0.010093493
-0.082103737 0.013028075 0.0099178702
-0.080961466 0.01134856 0.0094645675
-0.079145223 0.0096400455 0.0090259155
-0.00070502766 -0.07934989 0.0081440955
0.00049849291 -0.080487467 0.0081374878
0.0019864487 -0.082173832 0.0081208041
0.0037720043 -0.084197491 0.00810079
0.0052060424 -0.086202107 0.0087403599
0.0070044482 -0.087640427 0.0090719685
-0.082268663 0.018501202 0.010222966
-0.081596211 0.016554257 0.010179495
-0.080187395 0.014451052 0.0093700159
-0.078955449 0.012685989 0.0091226557
-0.078542531 0.01113106 0.0090850843
0.0032954565 -0.081619188 0.0081679262
0.0054477891 -0.082869634 0.0081798472
0.0072432207 -0.084734634 0.0081648622
0.0089978697 -0.086336561 0.0090464242
0.010825835 -0.08745788 0.0091659604
-0.082032256 0.022295456 0.01034347
-0.081359774 0.020348553 0.0103
-0.079859048 0.018292157 0.0098276343
-0.078384906 0.01621764 0.0092429342
-0.077710159 0.014263927 0.0091993101
0.0080756284 -0.081601724 0.0082791187
0.0092659947 -0.08295083 0.0082657654
0.011042075 -0.08486978 0.0084710745
0.012789117 -0.086523406 0.0092397491
0.01431132 -0.087571569 0.0092432098
-0.081320904 0.023520414 0.010397066
-0.07961306 0.021941436 0.010013461
-0.077989042 0.020015057 0.0093672164
-0.077472918 0.018071372 0.0093202293
0.011278903 -0.08132568 0.0083616395
0.013074331 -0.08319068 0.0083466843
0.014468914 -0.085042067 0.009323556
0.015951715 -0.086722605 0.0093069375
-0.080787949 0.026978558 0.010514235
-0.079967625 0.025328219 0.010371994
-0.078279562 0.023507442 0.0096093137
-0.07681255 0.021852169 0.0094501581
0.013258826 -0.080229349 0.0084407087
0.014759984 -0.081704162 0.0084307706
0.016161768 -0.083663203 0.0091821384
0.017928084 -0.085577376 0.0093874093
0.019786291 -0.086329222 0.0094076432
-0.079543151 0.029122148 0.010608043
-0.078098886 0.02706199 0.0099118734
-0.076826416 0.025038375 0.0095464233
0.014580985 -0.079463184 0.0084945457
0.016445598 -0.080217697 0.0085148569
0.01805561 -0.082115933 0.0087447325
0.019899555 -0.083651893 0.0093913451
0.021426691 -0.085480258 0.009471342
0.022988308 -0.085896052 0.0094948811
-0.078974612 0.03264156 0.0107279
-0.077802829 0.030879434 0.010256818
-0.076432452 0.02892692 0.0096734418
0.018746197 -0.079088449 0.0086023407
0.019956339 -0.080120258 0.0085990764
0.021577749 -0.08197996 0.0088531291
0.023423402 -0.083539568 0.0094334455
0.024925249 -0.085383177 0.0095552737
0.02644752 -0.086431324 0.0095587652
-0.078463919 0.03540276 0.01082344
-0.076996386 0.033845007 0.01030984
-0.075631261 0.032289308 0.0097939093
-0.075075611 0.03098019 0.0097671002
0.021903789 -0.078522839 0.0086925998
0.023467131 -0.080022804 0.0086833276
0.025252676 -0.082046449 0.0086633125
0.026819447 -0.083768696 0.0092728026
0.028333073 -0.085724741 0.0096238349
-0.078141801 0.038874194 0.010936139
-0.07714963 0.037275955 0.010710496
-0.075264528 0.035713155 0.010006252
-0.074157171 0.033789143 0.0098735206
0.025132975 -0.078853622 0.0087573249
0.027265534 -0.080421336 0.0087591866
0.028975518 -0.08242619 0.0088380575
0.030150432 -0.084297471 0.0096090836
0.031566814 -0.08580146 0.0096963709
-0.07678964 0.040920366 0.011029461
-0.075425826 0.039145462 0.010381776
-0.07359723 0.037321437 0.0099935587
0.029219138 -0.079748034 0.0088248234
0.03074662 -0.080799833 0.0088282879
0.032281384 -0.082841322 0.009427364
0.033869319 -0.084518023 0.0097885886
-0.075039327 0.042805396 0.011127139
-0.073510721 0.040756106 0.010099684
-0.072657466 0.039109711 0.010069514
0.03250603 -0.079590984 0.0089056753
0.033934075 -0.08116354 0.0090339985
0.035743423 -0.082683161 0.0097056096
0.037377749 -0.084262848 0.0098775476
-0.074209802 0.045927428 0.011241001
-0.073050842 0.044580813 0.011115795
-0.071646608 0.042549901 0.010197224
0.034376003 -0.078798659 0.0089729819
0.035943005 -0.079215884 0.0089966245
0.037661057 -0.081010789 0.0094823046
0.039670378 -0.083137505 0.009964738
0.041528568 -0.083889417 0.009984972
-0.072529957 0.047408812 0.011324779
-0.071138017 0.046195291 0.010819838
-0.070080094 0.044680968 0.010298094
0.037926272 -0.078066662 0.0090773795
0.039491192 -0.079267435 0.0091772741
0.041330807 -0.081202775 0.0097282417
0.042846128 -0.083125927 0.01003861
-0.070953012 0.049277559 0.01141794
-0.069691576 0.047805723 0.01083071
-0.068711832 0.046187427 0.010375452
0.041437011 -0.077969231 0.0091615999
0.043077718 -0.080124207 0.0095345341
0.044512846 -0.081855334 0.010115704
0.046074446 -0.082271121 0.010139273
-0.069941849 0.053276949 0.011562606
-0.069453396 0.051340405 0.011404024
-0.068038113 0.049330335 0.010486315
0.043102924 -0.076800026 0.0092356279
0.044736512 -0.078386649 0.0094072651
0.046520997 -0.079912834 0.010078155
0.047418296 -0.081086054 0.010206307
-0.068578295 0.054778229 0.011639695
-0.067513227 0.053121574 0.011169342
-0.066471592 0.051461399 0.010587185
0.046623532 -0.07654395 0.0093248766
0.048323441 -0.078160763 0.0098711737
0.049730655 -0.079644501 0.010303552
-0.067432478 0.057880376 0.011760247
-0.066687584 0.05651933 0.011593263
-0.065572627 0.054748513 0.010957814
-0.065103292 0.052967902 0.010664543
0.048914198 -0.07557337 0.009407361
0.050421964 -0.076575905 0.0095230443
0.052042965 -0.078202993 0.010400767
-0.066385224 0.059401561 0.011830617
-0.064713083 0.057875577 0.011197614
-0.063616395 0.056378093 0.010802345
0.052464534 -0.074841343 0.0095117288
0.053836465 -0.076623276 0.010204272
0.054909065 -0.078066058 0.010471292
-0.064736478 0.061111625 0.011920633
-0.063237466 0.059485499 0.011334186
-0.061910961 0.058181886 0.010896521
0.054201759 -0.073549233 0.0095911371
0.055658776 -0.075466923 0.010067047
0.057108488 -0.076980226 0.010555126
-0.062986165 0.062996648 0.01201831
-0.061345372 0.06100421 0.011328722
0.056113623 -0.072522938 0.0096665118
0.057621356 -0.073892027 0.0096598873
0.059221037 -0.075527303 0.010536884
0.060720004 -0.076527454 0.010652469
-0.061820693 0.066414967 0.012148916
-0.060970392 0.064774252 0.01211886
-0.05939294 0.062801257 0.011094864
0.059644144 -0.072108224 0.0097608212
0.061284896 -0.073844306 0.010413295
0.062771454 -0.075196497 0.010740288
-0.062177412 0.070881434 0.012276061
-0.060575847 0.068558596 0.012242724
-0.058954597 0.066551909 0.01221941
-0.057370156 0.064585067 0.011195768
0.060813669 -0.068678029 0.0098918648
0.061666913 -0.070324413 0.0098617245
0.063229315 -0.071924068 0.010850109
0.06471213 -0.073604614 0.010833491
-0.060833585 0.072066516 0.012343095
-0.059054155 0.070049897 0.012323171
-0.0572748 0.068033248 0.012303217
-0.055684488 0.066071562 0.011279854
0.061825044 -0.067786157 0.0099423165
0.06335257 -0.068837903 0.0099458108
0.064947136 -0.070511974 0.010765902
0.066688545 -0.07245934 0.010913962
-0.059153728 0.073547885 0.012426903
-0.057374358 0.071531236 0.012406949
-0.055636376 0.069529206 0.012164108
-0.054265242 0.06766583 0.01136103
0.065038197 -0.067351446 0.010029897
0.066666514 -0.069098487 0.010681773
0.068368338 -0.070978001 0.010997769
-0.057137977 0.075325504 0.012527453
-0.055358604 0.073308848 0.012507528
-0.053639319 0.071315877 0.012153329
-0.052273676 0.069679111 0.011468175
0.06706097 -0.065567635 0.010130801
0.068684638 -0.067318782 0.010782441
0.070384108 -0.069200397 0.01109832
-0.053342804 0.075086497 0.012608079
-0.05164047 0.07310459 0.012142634
-0.050250895 0.071462914 0.011569109
0.069157489 -0.064061485 0.010225005
0.070648216 -0.065696314 0.01046011
0.07242503 -0.067350239 0.010901416
-0.051384471 0.076895654 0.012374676
-0.049696892 0.07492353 0.011798028
-0.048228133 0.073246717 0.011670012
0.071384355 -0.062654592 0.010319218
0.072594486 -0.063686401 0.010315955
0.073816083 -0.065265 0.010296361
-0.049816027 0.078443199 0.011790767
-0.048030417 0.076419592 0.011770753
-0.046296496 0.074590303 0.011755446
0.073387384 -0.061188072 0.010410033
0.07428015 -0.062199894 0.010400041
-0.048130356 0.079929717 0.011874854
-0.046344809 0.077906065 0.011854868
-0.044825625 0.075990207 0.011831944
0.074775457 -0.059364308 0.010497451
-0.044322025 0.079689868 0.011955773
-0.04317119 0.077706203 0.011922272
-0.043271076 0.081216358 0.012026372
-0.034782454 0.08450412 0.012322555
-0.03325497 0.083452314 0.01232605
-0.033071961 0.085962363 0.012628735
-0.031533517 0.084490635 0.012397369
-0.031050261 0.087745219 0.012729596
-0.02958606 0.086088054 0.012490892
-0.029388411 0.089260906 0.012591662
-0.027900448 0.087574527 0.012574978
-0.027702747 0.090747409 0.012675748
-0.026214801 0.089061037 0.012659064
-0.025004661 0.088029221 0.0126558
-0.025679966 0.092531212 0.012776652
-0.024192005 0.090844832 0.012759969
-0.022704048 0.08915846 0.012743315
-0.020839443 0.088403948 0.012763595
0.08955048 -0.03675995 0.012525509
0.090222977 -0.038706854 0.012482069
-0.022400958 0.092833854 0.013751281
-0.020681271 0.090942271 0.012844218
-0.0194909 0.089593165 0.012830865
0.090722933 -0.03492919 0.012608154
0.092080638 -0.036919292 0.01257926
0.093563423 -0.038599819 0.012562643
-0.020712849 0.094299264 0.013945973
-0.018995604 0.092428774 0.012928305
-0.01750765 0.090742394 0.012911621
0.09168908 -0.033354331 0.011677554
0.093522303 -0.03521033 0.011949678
-0.018797947 0.095601611 0.013029074
-0.017309997 0.093915246 0.013012391
-0.015822036 0.09222886 0.012995707
0.093989708 -0.032225106 0.011765067
0.09518005 -0.033574183 0.011751714
-0.015287224 0.09569905 0.013113295
-0.013501661 0.09367539 0.01309328
-0.011663374 0.092497863 0.013100159
0.095840447 -0.02979341 0.011881614
0.097202837 -0.031790387 0.011852618
-0.011478887 0.0954592 0.013194184
-0.009693332 0.093435548 0.013174199
-0.0078550493 0.092258021 0.013181048
0.095435999 -0.024352888 0.012037208
0.096146457 -0.026245115 0.011996275
0.097440034 -0.027982987 0.011973536
0.099225625 -0.030006601 0.011953522
-0.0094560944 0.097242996 0.013295117
-0.0076705506 0.095219344 0.013275103
-0.0061825863 0.093532972 0.013258419
-0.0046418989 0.092692718 0.013268599
0.096645579 -0.022836434 0.012111172
0.097974859 -0.024512803 0.012091123
0.099549122 -0.026245512 0.012620856
-0.0074860076 0.098180719 0.013369127
-0.0059848856 0.096705846 0.013359189
-0.004496926 0.095019482 0.013342505
-0.003060546 0.093527503 0.013330529
0.096982189 -0.019990828 0.012205247
0.098172553 -0.021339927 0.012191894
0.099701561 -0.023236534 0.012369946
0.10141859 -0.025001949 0.012727869
-0.0042992248 0.098192357 0.013443275
-0.0028112757 0.096505985 0.013426592
-0.0013233193 0.094819613 0.013409908
0.00020417711 0.093767807 0.013413402
0.098339036 -0.017937561 0.012298905
0.09981893 -0.019826453 0.01238708
0.10138628 -0.021532191 0.013011001
-0.00078848726 0.098289788 0.013527496
0.00069946924 0.096603416 0.013510842
0.0022627595 0.095103413 0.013501539
0.098905042 -0.014696911 0.012410251
0.10009541 -0.01604601 0.012396898
0.1016429 -0.017911393 0.013043297
0.002722254 0.098387219 0.013611745
0.0040158127 0.096649356 0.013589007
0.10063023 -0.01257584 0.012514486
0.10211818 -0.014262207 0.012497802
0.10365464 -0.016217532 0.012724251
0.10116506 -0.009105661 0.012632074
0.10201829 -0.010752056 0.012601904
0.10380385 -0.012775704 0.012581889
0.10157427 -0.0059461379 0.012737319
0.10221594 -0.0075792051 0.012702674
0.10370392 -0.0092655923 0.01268599
0.10189754 -0.0024626411 0.012850431
0.10275077 -0.0041090394 0.012820261
0.10423873 -0.0057954122 0.012803577
0.10544904 -0.0075553055 0.012778261
0.017320868 0.097467802 0.013921846
0.018630378 0.095474146 0.013891709
0.02054275 0.093952149 0.013889855
0.10290895 -0.0015707284 0.012900883
0.10409932 -0.0029198262 0.01288753
0.020494482 0.097267941 0.013989248
0.02228003 0.095244296 0.013969233
0.024091948 0.09364371 0.013962681
0.023965692 0.096730806 0.01405335
0.025751235 0.094707154 0.014033335
0.027252363 0.093232289 0.014023367
0.10227206 0.008662371 0.013196369
0.10307368 0.0072103487 0.013170905
0.10495039 0.0056268964 0.013166332
0.02709973 0.095896333 0.014100604
0.028587688 0.094209954 0.01408392
0.10131893 0.013818918 0.01333061
0.10225821 0.011848575 0.013292633
0.10332301 0.01018886 0.013266969
0.10465229 0.0085124793 0.01324692
0.10532709 0.006558795 0.013203297
0.036680941 0.091152005 0.014178593
0.10233866 0.015574889 0.013407451
0.10385779 0.013658985 0.013384555
0.038019594 0.092182577 0.014240833
0.039815031 0.090317577 0.014225848
0.041653313 0.089140043 0.014232698
0.04287 0.088213965 0.014232806
0.042988651 0.090117708 0.014293251
0.044476602 0.088431336 0.014276597
0.04600409 0.08737953 0.01428006
0.045825094 0.089620516 0.014343865
0.047101524 0.087947495 0.014322677
0.065246128 0.07661175 0.014399108
0.067210123 0.074895397 0.014392545
0.068737611 0.073843591 0.01439601
0.076475039 0.065074489 0.01430932
0.077665403 0.063725382 0.014295967
-0.054814264 -0.0502869 0.006771734
-0.053619776 -0.051640667 0.0067583406
-0.052126665 -0.053332873 0.0067415913
-0.050932176 -0.054686639 0.0067282277
-0.06263902 -0.037328381 0.0069834348
-0.061444536 -0.038682148 0.0069700414
-0.059652805 -0.040712796 0.0069499663
-0.055392187 -0.046734516 0.0068660686
-0.053759694 -0.048755143 0.0068425946
-0.05226659 -0.050447349 0.0068258746
-0.050773479 -0.052139562 0.0068091257
-0.048981752 -0.054170206 0.0067890501
-0.07418716 -0.017423049 0.0073195109
-0.073143885 -0.019150864 0.0072912863
-0.071718328 -0.021414155 0.0072557181
-0.070384458 -0.023096347 0.0072355997
-0.074373737 -0.013575698 0.0074318196
-0.073431216 -0.015552853 0.0073937569
-0.071639486 -0.017583495 0.007373652
-0.023521638 -0.071435705 0.0068550715
-0.021690195 -0.072829559 0.0068551842
-0.075502843 -0.0077511952 0.0075822799
-0.074228443 -0.010388498 0.0075318515
-0.072894566 -0.01207069 0.0075117331
-0.071401462 -0.013762893 0.007495014
-0.018138675 -0.07373818 0.0069098808
-0.016076969 -0.075100906 0.0069162901
-0.077434488 -0.0028350237 0.0076865796
-0.076279663 -0.0048255501 0.0076529989
-0.074487939 -0.0068561989 0.0076329238
-0.072696202 -0.0088868449 0.0076128482
-0.013620752 -0.075703077 0.0069548925
-0.012036189 -0.07695356 0.0069536814
-0.078092329 0.0020009007 0.0078179501
-0.077534743 0.0006872568 0.0077910507
-0.076379925 -0.0013032678 0.00775747
-0.074588187 -0.0033339201 0.0077373944
-0.072796464 -0.0053645638 0.0077173188
-0.0082411291 -0.077618748 0.0070213648
-0.078278907 0.0058482504 0.0079302881
-0.077177137 0.0038610778 0.0078955647
-0.075843282 0.0021788937 0.0078754462
-0.074350171 0.0004866868 0.0078587271
-0.072585359 -0.0015638213 0.0077262176
-0.078040823 0.0096688913 0.0080516208
-0.077098355 0.0076917019 0.0080135278
-0.075306617 0.0056610513 0.0079934523
-0.073813513 0.0039688461 0.0079767033
0.001220097 -0.079706207 0.007177121
0.0024145872 -0.081059977 0.0071637277
-0.078054816 0.01286607 0.0081482232
-0.07719861 0.011213982 0.008117998
-0.075406879 0.0091833351 0.0080979234
-0.073419772 0.0071627698 0.0079397159
0.0040266975 -0.080841906 0.0072076889
0.0055595064 -0.081897311 0.0072111571
-0.077219501 0.01600983 0.0082628746
-0.076805159 0.014449499 0.0082251457
-0.075507089 0.012705656 0.0082023647
-0.073544748 0.010713171 0.0080873482
0.0072112717 -0.081042483 0.007275335
-0.076304354 0.017869964 0.0083404882
-0.074970439 0.016187817 0.0083203707
-0.073477328 0.01449561 0.0083036218
-0.071796395 0.012559047 0.0077834656
0.0095396955 -0.079590924 0.0073732659
0.011410803 -0.080348015 0.0073935958
-0.075800918 0.021673881 0.0084674461
-0.074433789 0.019669982 0.0084383469
-0.072940685 0.017977774 0.0084216278
0.013138199 -0.079306141 0.00746516
-0.075562887 0.025494475 0.0085887779
-0.074195765 0.023490582 0.0085596787
-0.072457962 0.021438109 0.008315309
0.016306715 -0.078738563 0.0075557311
-0.075490512 0.028366629 0.0086775133
-0.074296027 0.027012868 0.0086641498
-0.072328493 0.025223248 0.0079882536
-0.074316904 0.031808704 0.0088090254
-0.074097648 0.030196697 0.0087652653
-0.072658651 0.028487595 0.0085243564
-0.07071393 0.026691442 0.0077365898
-0.073136352 0.033652153 0.0088922651
-0.072067857 0.031986695 0.0088665225
-0.070760503 0.030240843 0.0080654928
0.025868192 -0.078190066 0.0077937189
0.027452748 -0.079440556 0.0077925078
-0.072473727 0.037446011 0.0090225907
-0.071531199 0.035468858 0.0089844987
-0.070195973 0.033738878 0.0082957763
-0.068777733 0.03202204 0.0079430118
0.027611455 -0.076893486 0.0078734355
0.029104559 -0.078585677 0.0078566866
0.030338757 -0.079302646 0.0078634806
-0.07144434 0.038915448 0.0090909693
-0.069628291 0.037076749 0.0085769342
-0.068239205 0.035516217 0.0080614071
-0.066765562 0.033811882 0.007932676
0.030796032 -0.077094041 0.0079410523
0.031990521 -0.078447811 0.007927658
-0.070457853 0.042433221 0.0092204511
-0.069939993 0.040482778 0.0091733653
-0.068237573 0.038685512 0.0083004758
-0.066089168 0.036857381 0.0078182705
-0.064816579 0.035290793 0.0072760289
0.032487553 -0.075602368 0.0080254478
0.033980649 -0.077294566 0.0080087287
0.035513435 -0.078350022 0.0080121662
-0.069208242 0.044016607 0.0092974026
-0.068011723 0.042260081 0.0088270977
-0.066342838 0.040207814 0.0082475413
-0.06467025 0.038304582 0.0076030949
0.036024619 -0.075552307 0.007997633
0.037728172 -0.077256665 0.0080966409
-0.067512915 0.04608335 0.0093993228
-0.066078648 0.044043928 0.0084811356
-0.064353682 0.041997403 0.0081254765
-0.062719405 0.039931186 0.0073223026
0.038114622 -0.073951006 0.007649817
0.03983191 -0.075745322 0.0081911366
0.041026447 -0.077099048 0.0081777442
-0.066836864 0.04923708 0.0095105749
-0.065844938 0.047611773 0.0090553686
-0.064067245 0.045837726 0.0084708976
-0.062455866 0.043780543 0.0075562978
0.041523423 -0.074253641 0.0082755331
0.043016545 -0.075945854 0.0082587833
-0.065587223 0.050820518 0.0095874965
-0.06438724 0.049233846 0.0090668304
-0.06219779 0.047362901 0.0082745142
-0.060435925 0.045580469 0.0075464258
0.04324859 -0.072855473 0.0081354566
0.045006637 -0.074792661 0.0083398232
0.046877697 -0.075549789 0.0083601819
-0.06389194 0.052887224 0.0096894167
-0.062422898 0.050868131 0.0088838534
-0.060764011 0.048988648 0.0081425114
-0.05873283 0.047082357 0.0076314099
0.047054864 -0.073049411 0.0083288886
0.048754163 -0.074754685 0.0084277354
-0.062877573 0.056339316 0.0098175295
-0.062021367 0.054687232 0.0097873043
-0.060433704 0.052665118 0.0087620243
-0.058789056 0.050628323 0.0079599759
-0.057029635 0.04858432 0.0077163647
0.049142312 -0.07139799 0.0080937156
0.050857916 -0.07324335 0.0085222619
-0.061166249 0.058149353 0.0099120187
-0.060080968 0.056486312 0.0094420006
-0.058418367 0.054462846 0.0087519847
-0.056789968 0.052431267 0.0078385249
-0.055413406 0.05041356 0.0078092492
0.051155202 -0.06955944 0.0083072446
0.052887682 -0.0714534 0.008623518
0.054420449 -0.072508842 0.0086269863
-0.059793197 0.059661068 0.0099896472
-0.058431044 0.05798598 0.0093032755
-0.056549128 0.05599723 0.0085240714
-0.054746222 0.054233573 0.0079404879
-0.053543493 0.052870475 0.0079270136
0.052910492 -0.068201892 0.0080554606
0.054579157 -0.069961771 0.0087079136
0.056072261 -0.071653962 0.0086911349
-0.058101736 0.061152708 0.010074043
-0.056735661 0.059481032 0.0093878079
-0.055037938 0.057620458 0.0087869577
-0.053043075 0.055735502 0.0080254423
-0.051840339 0.054372396 0.0080119679
0.054370686 -0.066502035 0.0078072269
0.056036904 -0.068266533 0.0084594926
0.057763781 -0.070162296 0.0087755611
0.058659639 -0.071177617 0.0087654935
-0.056071967 0.062942654 0.0101753
-0.05470125 0.061275091 0.0094892997
-0.053024333 0.059260562 0.0087999208
-0.051339921 0.057237424 0.0081104264
-0.050137192 0.055874322 0.008096952
0.056407478 -0.064705886 0.0079088369
0.058102593 -0.066541471 0.0083928518
0.059793539 -0.068372346 0.0088768173
0.060012791 -0.069984354 0.0088329976
-0.053842891 0.064679757 0.010136645
-0.052691422 0.062913597 0.0095021045
-0.051004019 0.061063126 0.0087901214
-0.049296118 0.059039764 0.0082123596
-0.048093386 0.057676658 0.0081988852
0.05844425 -0.062909737 0.008010447
0.060135882 -0.064748399 0.0084942114
0.061823305 -0.066582397 0.0089780744
0.06305749 -0.067299351 0.0089848684
-0.053246554 0.067239605 0.01037096
-0.051895782 0.065939628 0.0099339411
-0.050390273 0.064541258 0.009354569
-0.049000945 0.062871456 0.0086689349
-0.047252361 0.06084206 0.0083143227
-0.046049632 0.059478961 0.0083008483
0.060481038 -0.0611136 0.0081120273
0.062095571 -0.063041434 0.0082729859
0.063514777 -0.065090753 0.0090624103
0.064410686 -0.066106044 0.0090523725
-0.051555082 0.068731241 0.010455356
-0.0503924 0.067551136 0.010196327
-0.04869293 0.066038057 0.0094392449
-0.047299758 0.064371645 0.0087537756
-0.045549225 0.062343989 0.0083992779
-0.044346485 0.06098089 0.0083858036
0.062178325 -0.059616826 0.0081967022
0.063887879 -0.061737854 0.0085055493
0.065206282 -0.06359908 0.0091468357
0.066102155 -0.064614408 0.0091367681
-0.049525332 0.070521198 0.010556612
-0.048384465 0.069188491 0.010209051
-0.046995644 0.067534827 0.0095239189
