# .PCD v0.7 - Point Cloud Data file format
VERSION 0.7
FIELDS x y z
SIZE 4 4 4
TYPE F F F
COUNT 1 1 1
WIDTH 1269
HEIGHT 1
VIEWPOINT 0 0 0 1 0 0 0
POINTS 1269
DATA ascii
-0.067264311 -0.067675941 0.01084451
-0.023192061 0.084785268 0.0089638541
-0.022123812 0.086120173 0.0089680254
-0.021327266 0.08822608 0.0095314458
-0.020555243 0.090285897 0.0099283038
-0.065669417 -0.072754696 0.010999705
-0.065409236 -0.070456512 0.010959165
-0.020424439 0.086302049 0.0090155387
-0.018882515 0.087834962 0.0090965312
-0.018274924 0.090174302 0.0099226236
-0.017130626 0.091821611 0.0099994754
-0.063544445 -0.073498234 0.01107964
-0.016271768 0.087635785 0.0091129802
-0.015773833 0.089766279 0.0096835317
-0.015045308 0.09183006 0.010062319
-0.014236344 0.087594993 0.0091753351
-0.013494185 0.089034192 0.0092675034
-0.01266052 0.091141388 0.0098759821
-0.011531708 0.092501871 0.010154366
-0.011338205 0.088763669 0.0092383111
-0.010336119 0.090507895 0.00949868
-0.010110255 0.092086792 0.010206092
-0.0081347534 0.090059601 0.0094507933
-0.0072842408 0.092144594 0.010067947
-0.0058924737 0.094199382 0.01028907
-0.0062031974 0.08989913 0.0093695931
-0.0048846877 0.091668516 0.0097057242
-0.0040954575 0.094189107 0.010343577
-0.0034716369 0.096322179 0.010317482
-0.0028260699 0.097870111 0.010304392
-0.0028512871 0.091698289 0.0096831806
-0.0016714203 0.093502708 0.010264568
-0.00093496998 0.095324196 0.010415176
0.00080976216 0.097773053 0.010416323
0.00086263678 0.093109712 0.010230281
0.0015033976 0.094869398 0.010498466
0.0022312172 0.097357981 0.010468051
0.0028830941 0.092360727 0.0095923655
0.003573064 0.094097465 0.010160359
0.0043634041 0.096735358 0.010545625
0.0048936363 0.092083611 0.009658983
0.0061226706 0.093628906 0.0097260745
0.0068727243 0.096103221 0.01044717
0.0086186416 0.093165815 0.0097487699
0.0094001265 0.095533192 0.010222858
0.010830616 0.092896305 0.0098213246
0.011548159 0.094951101 0.010216656
0.013272175 0.092478581 0.009903919
0.013934759 0.094236903 0.010029819
0.014759985 0.096297085 0.010654684
0.016077718 0.091917649 0.01000053
0.016495353 0.093345679 0.0099830553
0.017121794 0.095487699 0.00995686
0.018993311 0.092616215 0.01007393
0.019631471 0.094818138 0.010332711
0.021491276 0.091886774 0.01016482
0.022147547 0.094176881 0.010553355
0.023632446 0.091261536 0.010242715
0.024269637 0.093511194 0.010714917
0.024904577 0.095753372 0.011187173
0.026081089 0.090804815 0.010326345
0.026762389 0.092783265 0.010805589
0.027392119 0.095026977 0.011277703
0.028610971 0.09027271 0.010414025
0.029307107 0.092178129 0.010645104
0.029879671 0.09430059 0.011368157
0.030978367 0.089891404 0.010493622
0.031396002 0.091319419 0.010476149
0.032033514 0.093740039 0.010444405
0.034546886 0.088849343 0.010623451
0.033893961 0.090589985 0.010567008
0.034520466 0.092732005 0.010540812
0.035974346 0.088432521 0.010675372
0.036391981 0.089860521 0.010657913
0.03811546 0.087807268 0.010753267
0.038533095 0.089235283 0.010735808
0.040613431 0.087077834 0.010844141
0.041031055 0.088505849 0.010826668
0.042815376 0.0879848 0.010891583
0.046383899 0.08694274 0.011021412
-0.084604613 0.010952804 0.0076627596
-0.083975546 0.013103798 0.007636447
-0.083241656 0.015613306 0.0076057483
-0.082612589 0.017764298 0.0075794356
-0.08187864 0.02027379 0.0075487378
-0.081144698 0.02278327 0.00751804
-0.080515623 0.024934268 0.0074917274
-0.079781681 0.027443755 0.0074610296
-0.079152666 0.029594768 0.0074347164
-0.08664839 -0.0040150126 0.0079163909
-0.086188316 -0.0015552609 0.0078784749
-0.085767388 0.00089739461 0.0078395093
-0.085373037 0.0030057603 0.0078069963
-0.084346391 0.0054416861 0.0075365268
-0.083611667 0.0079537798 0.0075057955
-0.082981959 0.010107024 0.0074794646
-0.082247242 0.01261912 0.0074487482
-0.081575982 0.015172611 0.0071650259
-0.080945604 0.017328087 0.0071386923
-0.080210157 0.019842811 0.0071078972
-0.079474702 0.022357531 0.0070771622
-0.078824207 0.02449573 0.0071351635
-0.078049056 0.026974028 0.0072731311
-0.077314332 0.029486131 0.0072423997
-0.0769853 0.031685676 0.0074561615
-0.076047413 0.034005906 0.0074356208
-0.075159125 0.036600024 0.0074078008
-0.074403264 0.038519435 0.0073901992
-0.07354258 0.04079736 0.0073682116
-0.085773699 -0.011663634 0.0081040151
-0.085418493 -0.0095623732 0.0080704689
-0.085354634 -0.0070388005 0.0080192266
-0.085027814 -0.0048763934 0.0077333725
-0.084376119 -0.0023349975 0.0073868134
-0.083690286 0.00019959423 0.0071665035
-0.083059274 0.0023573255 0.007140107
-0.082028791 0.0048006419 0.0068695932
-0.081291847 0.0073205987 0.0068387459
-0.080660149 0.0094805565 0.0068123317
-0.079923138 0.012000498 0.0067815147
-0.07926672 0.014574447 0.0064135408
-0.078634143 0.01673739 0.0063870777
-0.07797613 0.019170361 0.0064163432
-0.07709749 0.02159277 0.0064646327
-0.076448783 0.02388026 0.0066361763
-0.075711831 0.026400216 0.0066053737
-0.07497482 0.028920161 0.0065745274
-0.074645348 0.03112687 0.0067881495
-0.073909119 0.033644203 0.006757366
-0.073136054 0.036119066 0.0068953908
-0.072469205 0.038231634 0.0070377602
-0.071698472 0.040700421 0.0071758344
-0.070833459 0.043048434 0.0074026659
-0.069783241 0.045430183 0.0073842118
-0.068727545 0.047951847 0.0073629818
-0.067740135 0.049998194 0.0073497049
-0.085196309 -0.017668983 0.0082480116
-0.08482945 -0.015274649 0.0082086502
-0.084550031 -0.012799196 0.0081649292
-0.083903477 -0.010269118 0.0077976007
-0.083314583 -0.0077171954 0.0072056809
-0.082415946 -0.0056352415 0.0068275966
-0.081853442 -0.0032276791 0.0066866907
-0.081014447 -0.00078014756 0.0063030492
-0.080432631 0.001626598 0.0062342002
-0.079835467 0.0039215046 0.0062616174
-0.078978717 0.0063784383 0.0061279736
-0.078340709 0.0088607827 0.0060615637
-0.077747293 0.011052828 0.0058665448
-0.077007279 0.013583243 0.0058355788
-0.076267205 0.016113639 0.005804644
-0.075632885 0.018282561 0.0057781124
-0.074892871 0.020812966 0.005747132
-0.074152805 0.023343368 0.0057161963
-0.073517695 0.025598966 0.0059188115
-0.072640754 0.028049706 0.0058628805
-0.071983762 0.030515645 0.0058807661
-0.07138858 0.032803655 0.0059082974
-0.07048621 0.035223495 0.0059769843
-0.069768824 0.037608698 0.0062985905
-0.06927032 0.040074289 0.0064349519
-0.068604484 0.042689413 0.0064769201
-0.0679425 0.044926599 0.0067499992
-0.067070104 0.047338542 0.0067891926
-0.066348873 0.049647912 0.0071767573
-0.065471433 0.051903863 0.0073781302
-0.064227015 0.054030821 0.0073709236
-0.084594503 -0.023058867 0.0083797816
-0.084262118 -0.020554412 0.0083370525
-0.083439641 -0.018366095 0.007958428
-0.082961813 -0.01583894 0.0077766799
-0.082277298 -0.013488784 0.0073308782
-0.08165624 -0.010943685 0.0068373443
-0.081012703 -0.0083947927 0.0064278087
-0.08008109 -0.0063141561 0.0061620004
-0.079446763 -0.0041452353 0.0061354693
-0.078706697 -0.0016148371 0.0061044893
-0.078083448 0.00085158274 0.0060713864
-0.077693678 0.003190004 0.0060338899
-0.077233888 0.005566834 0.0059976876
-0.076574914 0.0083563263 0.0059587974
-0.07604634 0.010163765 0.0059367148
-0.073614806 0.018477965 0.0058350097
-0.073086172 0.020285388 0.0058128983
-0.072112627 0.022943784 0.0057862964
-0.071165442 0.024937261 0.0057729334
-0.070249073 0.027304085 0.0057507306
-0.069509059 0.029834492 0.0057198098
-0.068874747 0.032003414 0.0056932634
-0.068134673 0.034533814 0.0056622839
-0.067394659 0.037064224 0.0056313626
-0.06701944 0.039452139 0.0058425413
-0.066249259 0.04186466 0.0057649175
-0.065562084 0.044279799 0.0059516253
-0.06476225 0.046706948 0.0062582465
-0.063979916 0.049153697 0.0064804973
-0.063227698 0.051431365 0.0070556477
-0.062688783 0.053970754 0.0074186809
-0.061671641 0.055852778 0.0074097686
-0.060923647 0.057346459 0.0074008983
-0.083534539 -0.030605946 0.0085708601
-0.083492242 -0.028561546 0.0085290624
-0.083380952 -0.02626292 0.0083300387
-0.082875855 -0.023744671 0.0080458978
-0.082180314 -0.021319248 0.0076655922
-0.08116971 -0.01889818 0.0073115746
-0.080521956 -0.016365098 0.0069164084
-0.079999574 -0.014181588 0.0064414362
-0.079474248 -0.011748964 0.0062948596
-0.079142235 -0.0091386391 0.0062498888
-0.078635767 -0.0067362105 0.0062145595
-0.07821288 -0.0052902671 0.0061968821
-0.068486616 0.027966494 0.0057900613
-0.068063743 0.029412441 0.0057723536
-0.067429416 0.031581357 0.0057458226
-0.066377975 0.034282401 0.005720716
-0.06558796 0.036536641 0.0056970837
-0.064768612 0.038763639 0.0056749219
-0.06385231 0.041130472 0.0056527192
-0.063112244 0.043660868 0.0056217988
-0.062477916 0.045829777 0.0055952678
-0.061651964 0.048207782 0.0060704416
-0.060917873 0.050839104 0.0067194533
-0.06017312 0.053071827 0.0072992174
-0.059668094 0.055352613 0.00748087
-0.058777146 0.057828672 0.0073888996
-0.05755024 0.060141355 0.0074439622
-0.056610893 0.06211837 0.0074307066
-0.055959903 0.063679293 0.0074174902
-0.082427129 -0.033912543 0.0086740162
-0.08221706 -0.031662781 0.0086329551
-0.081717826 -0.029242411 0.0080410959
-0.081095584 -0.026730832 0.0075622532
-0.080121987 -0.024221499 0.0073568285
-0.079508826 -0.022149917 0.006929955
-0.07885699 -0.01961603 0.0065418016
-0.078250229 -0.017121449 0.0064450642
-0.078335367 -0.01482804 0.0063941665
-0.078159265 -0.013153085 0.0063641975
-0.062067702 0.041197874 0.0057052532
-0.061008114 0.04314452 0.0056962683
-0.060027909 0.045185678 0.0056828726
-0.059198275 0.047602542 0.0057195397
-0.058388337 0.04999641 0.0061314055
-0.05769667 0.052374948 0.0064023957
-0.056761332 0.054220419 0.0060915728
-0.056711059 0.058451016 0.0075049577
-0.05577099 0.059887778 0.0073601478
-0.054945923 0.061826732 0.0074871746
-0.054175388 0.064219415 0.0074600447
-0.052992962 0.0665095 0.0074475249
-0.081226431 -0.038673148 0.0088106273
-0.08121492 -0.03686063 0.0087727858
-0.080496319 -0.03473657 0.008282776
-0.080021828 -0.03222758 0.0078644883
-0.079373896 -0.029992102 0.0074328627
-0.078711443 -0.027472895 0.0070870118
-0.077858746 -0.025082666 0.006724746
-0.077083215 -0.022883913 0.0066017942
-0.076693438 -0.020545492 0.0065642977
-0.056883175 0.047334906 0.0057326537
-0.055939171 0.049413394 0.0057173828
-0.055304848 0.051582314 0.0056908517
-0.054670528 0.05375123 0.0056643207
-0.053886332 0.055091657 0.0056597604
-0.053931884 0.059974153 0.0075568594
-0.052513976 0.061302029 0.0069880011
-0.051821586 0.063625991 0.0073435474
-0.051053192 0.066027522 0.0072661415
-0.050524067 0.068206623 0.0074863844
-0.049562801 0.069593549 0.0074862102
-0.079534836 -0.042863715 0.0089500714
-0.07961788 -0.040227622 0.0086775692
-0.079177327 -0.037798673 0.0081870528
-0.078242667 -0.035416018 0.0074979677
-0.077637106 -0.032911662 0.0069075474
-0.077029608 -0.03074673 0.0067691095
-0.076476373 -0.028318726 0.0067346534
-0.075910836 -0.025580416 0.0066940468
-0.075510047 -0.023539482 0.0066631366
-0.054260314 0.049119309 0.0057743206
-0.053200725 0.051065966 0.0057653361
-0.052619278 0.053054143 0.0057410216
-0.052229505 0.055392563 0.0057035107
-0.049947567 0.06107628 0.0066533941
-0.049421132 0.062876239 0.0066313674
-0.048761122 0.065482333 0.0066733868
-0.048257153 0.067860201 0.0069784727
-0.047413163 0.070079178 0.0074742208
-0.046026252 0.071933173 0.0075438083
-0.078295 -0.045495607 0.00904301
-0.07794138 -0.043306336 0.0085526863
-0.077229053 -0.040829845 0.0078928582
-0.076555327 -0.038700391 0.0072011915
-0.075874597 -0.036184669 0.0069185626
-0.075612672 -0.033612736 0.0068723275
-0.075584218 -0.031168805 0.0068216543
-0.048056461 0.059891187 0.0057348628
-0.047118701 0.062139656 0.0057157772
-0.046412434 0.064747937 0.0058361273
-0.045577869 0.066982038 0.0062321331
-0.045116886 0.069618434 0.0068923188
-0.044204123 0.071838006 0.0074007567
-0.043416075 0.073765062 0.0075841057
-0.042449012 0.075298533 0.0075810165
-0.076773971 -0.048274465 0.0091475369
-0.076236434 -0.046327975 0.0088498415
-0.075605199 -0.043972462 0.0080290092
-0.074839197 -0.041638389 0.0072649359
-0.074202046 -0.039517675 0.0070394063
-0.074279398 -0.037435211 0.0069931666
-0.044994876 0.062696531 0.0057682702
-0.04401974 0.064242795 0.0057651759
-0.04330736 0.066248886 0.0058444822
-0.042686503 0.068554275 0.0063150111
-0.041894738 0.071204759 0.0067459196
-0.041111592 0.07351096 0.0072421823
-0.040623348 0.075630121 0.0076292111
-0.039460152 0.077538677 0.007624147
-0.074757464 -0.053792115 0.009324762
-0.074820049 -0.052106205 0.0092873489
-0.074720904 -0.04955361 0.0090489276
-0.073951393 -0.047243677 0.0083105266
-0.073236085 -0.044764645 0.0074293171
-0.072788291 -0.042298678 0.0071407314
-0.07285139 -0.040598713 0.0071029859
-0.042192589 0.064232387 0.0058206068
-0.04111091 0.065584034 0.0058248248
-0.040306948 0.067997694 0.005798229
-0.039526269 0.070665456 0.006129527
-0.038622394 0.072889283 0.0066467151
-0.038220044 0.075377941 0.0073319217
-0.03738004 0.077638745 0.0076849144
-0.035964299 0.078852527 0.007702135
-0.07354524 -0.056740213 0.0094235325
-0.073417962 -0.054864224 0.0093878387
-0.072908536 -0.052474771 0.008852534
-0.072039254 -0.050043695 0.0081453007
-0.071448371 -0.048030771 0.0075521446
-0.071229391 -0.045780662 0.0072612111
-0.039390251 0.065768212 0.0058729444
-0.037915256 0.067510553 0.005880788
-0.037037607 0.069789506 0.005859294
-0.036431339 0.072108231 0.0060431878
-0.035657156 0.074257709 0.0065574148
-0.035085883 0.076851256 0.0072705317
-0.034257792 0.079035163 0.0077498704
-0.033185128 0.080375656 0.0077540372
-0.071925104 -0.060066823 0.0095426021
-0.071903408 -0.057949461 0.0094152559
-0.071183056 -0.055756606 0.0087236967
-0.070564069 -0.053305745 0.0081278756
-0.069751918 -0.050981753 0.0075155469
-0.069448918 -0.048811693 0.0073789018
-0.034997426 0.069389917 0.0059294086
-0.033873945 0.071219809 0.0059248079
-0.03329787 0.073825546 0.0061016991
-0.032601062 0.076354124 0.0067932308
-0.031835854 0.078632481 0.0073312088
-0.031335805 0.080847338 0.007800004
-0.03019627 0.082615793 0.0077971825
-0.069687396 -0.063054964 0.0096732005
-0.070226267 -0.061270401 0.0096193142
-0.069666952 -0.058965165 0.0090539688
-0.068784356 -0.056568123 0.0082295528
-0.068179376 -0.054126132 0.007529255
-0.067778587 -0.052085195 0.0074983747
-0.032217186 0.071520738 0.0059685432
-0.030965859 0.073117115 0.0059726965
-0.030203247 0.075814977 0.0062118075
-0.029319588 0.078031957 0.0067194551
-0.028941685 0.080463 0.0075052185
-0.028004685 0.082462229 0.0078666639
-0.068347894 -0.064127073 0.0097362921
-0.067827895 -0.061756928 0.0092017138
-0.067212008 -0.059330758 0.0085576577
-0.066729605 -0.057274442 0.0077506285
-0.066254191 -0.054993473 0.0076057604
-0.029181309 0.073184542 0.0060252445
-0.028057834 0.075014442 0.0060206437
-0.027450385 0.077306271 0.0060907705
-0.026590694 0.079592377 0.006802428
-0.025703566 0.081917197 0.0076747742
-0.024719317 0.08361055 0.0079417657
-0.06663388 -0.066800155 0.0098444279
-0.066102222 -0.064889625 0.0094563598
-0.06544321 -0.062599532 0.0086035989
-0.064840578 -0.060184788 0.007841235
-0.064820074 -0.057965703 0.0077117309
-0.064883165 -0.056265745 0.0076739853
-0.026401067 0.075315356 0.0060643791
-0.025431791 0.076713845 0.0060642185
-0.024151893 0.078920916 0.0061814217
-0.023451036 0.081200711 0.0070302142
-0.022657294 0.083328314 0.0075811772
-0.021940144 0.085133687 0.0079936683
-0.064297117 -0.070336044 0.009989569
-0.064550303 -0.06807147 0.0098716542
-0.063773304 -0.065838836 0.0090100206
-0.063037083 -0.063438803 0.0080477074
-0.062666304 -0.061425224 0.0078497212
-0.021582974 0.078714788 0.0061383899
-0.020884229 0.080718108 0.0062284656
-0.020230949 0.082965501 0.0070903497
-0.019613801 0.085314795 0.0079934373
-0.018065546 0.086855769 0.0080744894
-0.062676966 -0.073662668 0.010108639
-0.062764578 -0.071302377 0.010056254
-0.062102638 -0.068868078 0.0096080359
-0.061505441 -0.066494435 0.0087699229
-0.061034773 -0.064295046 0.0079595195
-0.019862313 0.078898966 0.0061864941
-0.018716745 0.08013387 0.0061951112
-0.017980704 0.082477942 0.006584893
-0.01714802 0.084947199 0.0074753268
-0.016404968 0.086682148 0.0081283534
-0.061243601 -0.074081227 0.010160781
-0.060276154 -0.071683884 0.0098316129
-0.059695296 -0.069438063 0.0091090603
-0.059095934 -0.067353427 0.0081659406
-0.059459507 -0.065435134 0.0080311308
-0.016889544 0.080123447 0.0062505277
-0.01555309 0.081564203 0.0062605659
-0.014826977 0.08381211 0.0068605756
-0.014191379 0.086201839 0.0077765249
-0.013136332 0.087751046 0.0082046203
-0.058735169 -0.074813738 0.010252046
-0.057988603 -0.072592825 0.0095130289
-0.057180252 -0.070233397 0.0084235324
-0.056919705 -0.068596333 0.0081745367
-0.013041398 0.08130157 0.0063420315
-0.012289157 0.08328072 0.0064898268
-0.011753224 0.085755222 0.0075957016
-0.010979408 0.08765953 0.0081807943
-0.0096404785 0.089064911 0.0082826084
-0.056960613 -0.078055732 0.010373995
-0.056309465 -0.075662941 0.0097873025
-0.055688195 -0.07330393 0.0089780772
-0.055210419 -0.071085289 0.0082786735
-0.010152565 0.082840696 0.0063969265
-0.0094050663 0.084949464 0.0070421887
-0.0087035336 0.087123618 0.0077680945
-0.0078283744 0.089054555 0.0083375992
-0.054810569 -0.078683563 0.010452224
-0.053857893 -0.076493509 0.0094342018
-0.053205516 -0.074100062 0.0087780291
-0.05290338 -0.072162554 0.0083710793
-0.0078596594 0.082927287 0.006464398
-0.0068463278 0.084514685 0.0064615645
-0.006157062 0.086640291 0.007313245
-0.0055084205 0.088928759 0.0081794355
-0.052334685 -0.079472281 0.010293519
-0.05123736 -0.077127345 0.0094266664
-0.050846886 -0.074831992 0.008689628
-0.0043597817 0.084012799 0.0065473304
-0.0036057001 0.086113885 0.0069427905
-0.0030988997 0.088653401 0.0078732166
-0.0022179778 0.090526961 0.0083760982
-0.00079592108 0.092708021 0.0084731709
-0.049875237 -0.080301352 0.0099683749
-0.049133673 -0.07760793 0.0091001205
-0.049077123 -0.075529389 0.0085576698
-0.0021710638 0.083737999 0.0066192606
-0.0015522022 0.085431464 0.0067023681
-0.0007461757 0.087539911 0.0074009388
-4.7755402e-05 0.090056859 0.0079679126
0.00070083828 0.092173673 0.0085296761
-0.048025563 -0.083067767 0.010216006
-0.047301684 -0.080774285 0.0096391812
-0.04681281 -0.078665681 0.0087691834
-0.00013083077 0.08333841 0.0066893608
0.00093536149 0.084667832 0.0066935667
0.0017095366 0.086871177 0.00717087
0.0023943889 0.089374751 0.0078393091
0.0028300241 0.091426842 0.0086097689
-0.0456127 -0.083984368 0.010149181
-0.044829883 -0.081620537 0.0092591569
-0.044512849 -0.079948783 0.0087887812
0.0035219174 0.084429711 0.0067767752
0.0042757634 0.086326428 0.0068429518
0.0048080329 0.088564292 0.007829261
0.005437545 0.090885594 0.0085233916
-0.043989733 -0.086901926 0.010952479
-0.043351784 -0.084641024 0.0099234525
-0.042686582 -0.082305714 0.0091160182
-0.042284891 -0.080913261 0.0088764355
0.0064152051 0.085849829 0.0068342932
0.0071041887 0.087898523 0.0075902422
0.007850619 0.090386361 0.0083831847
0.0087918341 0.092242956 0.0087727662
-0.04150242 -0.087699704 0.010794325
-0.040832929 -0.085376568 0.010015107
-0.040178429 -0.083097801 0.0089861434
-0.040478252 -0.081440829 0.008942171
0.0089848964 0.085541718 0.0069184564
0.0096700368 0.087329425 0.0073184455
0.010388653 0.089747809 0.0082731927
0.011185355 0.091877535 0.0088528227
-0.039051019 -0.088632084 0.010137534
-0.038338445 -0.086195856 0.0097741717
-0.037812728 -0.084012821 0.0090769511
0.011594425 0.085211292 0.0070043053
0.012250775 0.086785227 0.0069909915
0.012931067 0.089108631 0.0081634093
0.013723462 0.091483794 0.0089378376
-0.036891926 -0.08926256 0.010216083
-0.036198437 -0.086912975 0.0095203975
-0.035820313 -0.084958985 0.0091570979
0.013273286 0.084917225 0.0070612431
0.014418799 0.086152136 0.0070698597
0.015048921 0.088329941 0.0077934912
0.015742417 0.090732247 0.0087645352
-0.035004761 -0.092158057 0.010334153
-0.034227982 -0.089784175 0.010107488
-0.033697244 -0.087443642 0.0093505969
0.016898192 0.085689701 0.007154542
0.017609432 0.087709665 0.0076338127
0.018273776 0.090058379 0.0087301666
0.018737985 0.091673218 0.0090854121
-0.032485854 -0.092893615 0.010425778
-0.031768158 -0.090485863 0.0099797789
-0.031162426 -0.088477127 0.0093720388
0.01958321 0.085036427 0.0072494717
0.020133555 0.086972579 0.0077256258
0.020807026 0.089383967 0.0086958706
0.021246426 0.090940721 0.0091766622
-0.030326825 -0.093524091 0.010504327
-0.029615154 -0.0911863 0.0098094074
-0.029160107 -0.089140303 0.0094465259
0.021751229 0.084403321 0.0073283403
0.02229711 0.086340792 0.0078043272
0.022961592 0.088754803 0.0087742517
0.023396531 0.090312868 0.0092548914
-0.027807975 -0.094259642 0.010595967
-0.027097274 -0.092000172 0.0096316691
-0.02657083 -0.090210296 0.0095473416
0.024140814 0.083761588 0.0074140877
0.02484495 0.085660905 0.00777059
0.025487436 0.088050082 0.0088029075
0.026148386 0.089842819 0.0093479697
-0.025289042 -0.094995186 0.010687592
-0.02457007 -0.092756346 0.0096614547
-0.024041496 -0.090948902 0.0096393423
0.026915647 0.083287604 0.0075079221
0.027313916 0.08493223 0.0076672575
0.028073331 0.087293178 0.0086131711
0.02866552 0.089330114 0.0094348621
-0.023130026 -0.095625661 0.010766141
-0.02240205 -0.093389437 0.0097403228
-0.022234797 -0.091476485 0.0097050788
0.029506544 0.084100455 0.0075691431
0.030055031 0.086394422 0.0083840946
0.030800637 0.088742211 0.0093298433
-0.019872719 -0.094128042 0.0098323235
0.032035876 0.083361849 0.0076611289
0.032611333 0.085548282 0.0083829938
0.033232033 0.087962158 0.0093515497
0.033342622 0.089743145 0.0095675224
-0.017343385 -0.094866633 0.009924354
0.034565214 0.082623243 0.0077531743
0.035180386 0.085057177 0.0087211523
0.035790022 0.087471999 0.0096893646
-0.015175366 -0.095499732 0.010003237
0.036733225 0.08199016 0.0078320429
0.037339479 0.084426694 0.0087996861
0.037940122 0.086844139 0.0097675798
-0.013007353 -0.09613283 0.010082105
0.038901191 0.081357077 0.007910911
0.039810419 0.083760105 0.0089410702
0.040448558 0.086111665 0.0098588448
-0.011218089 -0.099401832 0.010205071
-0.010478019 -0.096871428 0.010174106
-0.0092267524 -0.095275022 0.010178318
0.041430574 0.080618456 0.0080029117
0.042276725 0.082919687 0.0089181662
0.042957 0.085379139 0.0099500949
0.04389488 0.087699383 0.0099295545
-0.0086887581 -0.10014043 0.010297117
-0.0079486836 -0.097610019 0.010266136
-0.0074201091 -0.095802598 0.010244025
0.044259656 0.078222886 0.0081389137
0.044047479 0.079959616 0.0081959646
0.044495646 0.082411572 0.0091299657
0.0451071 0.084751286 0.010028324
0.045377828 0.087006919 0.0099889757
-0.0057806671 -0.09824311 0.010345005
-0.0052520931 -0.096435688 0.010322893
0.04570505 0.077800818 0.0081914878
0.046283871 0.079525299 0.008480534
0.047090959 0.081840158 0.009399143
0.047615532 0.084018797 0.010119574
0.048034921 0.085452788 0.010102033
-0.003251337 -0.098981731 0.010437006
-0.0027227656 -0.097174287 0.010414924
0.04829862 0.076707147 0.0082929451
0.048756544 0.078689829 0.0084651057
0.049607191 0.081105381 0.0094906744
0.050123975 0.083286285 0.010210824
-0.00072200526 -0.099720322 0.010529036
-8.7682602e-05 -0.097551405 0.010502535
0.050657969 0.075962134 0.0083799679
0.051144131 0.077917032 0.0088537848
0.051764037 0.080475546 0.0095691327
0.052274074 0.082658418 0.010289053
0.0014460145 -0.10035341 0.01060792
0.0022499766 -0.097939774 0.010581383
0.05282598 0.075329036 0.0084588369
0.053525429 0.077147052 0.0092422208
0.054141432 0.079624437 0.0098090312
0.003924259 -0.10099863 0.01069641
0.0047154194 -0.09856163 0.010668985
0.055355314 0.074590445 0.0085508525
0.055996072 0.076311834 0.0092267189
0.056771573 0.078754835 0.0095065776
0.0072447509 -0.099300221 0.01076103
0.0079011666 -0.0977263 0.010747687
0.058078762 0.071833357 0.0086912597
0.057778947 0.073490344 0.0086473022
0.058247387 0.075673133 0.0094493311
0.058978196 0.078161247 0.0097859018
0.0094127674 -0.099933311 0.010839898
0.0099413423 -0.098125875 0.010817787
0.059584029 0.071079902 0.0087526329
0.060106903 0.072699182 0.0090981992
0.060780894 0.075048208 0.0099165365
0.011942105 -0.10067192 0.010931885
0.012300747 -0.098870911 0.010904795
0.061860219 0.069684952 0.0089223087
0.062363058 0.071623251 0.0097257905
0.063127875 0.074244805 0.01039415
0.013748745 -0.10119949 0.010997606
0.014171627 -0.099753536 0.010979943
0.063736998 0.067042194 0.0089632487
0.064130954 0.068862654 0.0095205093
0.06452883 0.071241498 0.010445215
0.06540297 0.066372886 0.011029075
0.065955229 0.068352163 0.010822117
0.025677534 -0.099032909 0.011312529
0.026371855 -0.097195394 0.011294798
0.027787184 -0.097451761 0.011343001
0.08744771 0.039078899 0.012270568
0.088844419 0.036176454 0.011373269
0.089160115 0.038036406 0.01174388
0.089952439 0.040426306 0.011863038
0.090588748 0.035099089 0.010448031
0.091359407 0.037101615 0.011179637
0.092266843 0.039865915 0.011398989
0.092875123 0.034278568 0.010534413
0.093665443 0.036395513 0.010847217
0.095149271 0.029619556 0.010701329
0.095160894 0.031447165 0.010663185
0.095483772 0.033445451 0.01063084
0.096012399 0.035252877 0.010608728
0.09636578 0.025733087 0.01082
0.096464306 0.02821542 0.010770666
0.097017474 0.030643458 0.010736239
0.097415134 0.032769375 0.010703452
0.097635306 0.020418661 0.010970369
0.097670391 0.022684088 0.010923689
0.098066777 0.024844015 0.010890141
0.098621711 0.027316373 0.010854806
0.098781459 0.015218723 0.011114591
0.09879303 0.017046349 0.011076432
0.099221729 0.019406101 0.011039639
0.099961795 0.021936491 0.011008718
0.0993637 0.009163321 0.011259794
0.099625632 0.011735247 0.01121353
0.10001541 0.014073676 0.011176018
0.1005329 0.01617861 0.011147305
0.10056136 0.018622553 0.011096647
0.10013995 0.0010894736 0.011453389
0.10051865 0.003725399 0.011409307
0.10066826 0.0061143278 0.011363467
0.10106466 0.0082742656 0.01132992
0.10153013 0.010794291 0.011290887
0.10019356 -0.0067733456 0.011620705
0.1006868 -0.0040139272 0.011577463
0.10084527 -0.0018629904 0.011536944
0.10158534 0.00066740438 0.011505963
0.10232535 0.0031978241 0.011475028
0.10295967 0.0053667314 0.011448497
0.09823852 -0.021504419 0.011872019
0.098872848 -0.019335499 0.011845488
0.09950716 -0.017166581 0.011818957
0.099885806 -0.014530641 0.011774888
0.10026449 -0.011894726 0.01173079
0.10089888 -0.0097258128 0.011704259
0.1016389 -0.0071954038 0.011673264
0.1023789 -0.0046649911 0.011642342
0.10277656 -0.0025390699 0.011609571
0.10329501 -4.7626649e-09 0.011571726
0.098320477 -0.026923284 0.01198872
0.098838076 -0.024818368 0.011960007
0.099578097 -0.022287956 0.011929027
0.10008146 -0.019800538 0.011891849
0.1002298 -0.017377608 0.011845251
0.10096981 -0.01484719 0.0118143
0.10170987 -0.012316792 0.011783334
0.10234421 -0.010147875 0.011756804
-0.077267349 0.0015356113 0.0050809351
-0.076842725 0.0029875324 0.0050631748
-0.076365151 0.0057747797 0.0050188764
-0.075719371 0.0081752129 0.0049878182
-0.075207613 0.01050221 0.004954244
-0.074702159 0.012999904 0.004916898
-0.073959023 0.015540759 0.0048858291
-0.073257945 0.017601414 0.0048635835
-0.072322331 0.019790573 0.0048457212
-0.071572892 0.022160729 0.0048184395
-0.070579447 0.024403362 0.0048012072
-0.078221865 -0.011423375 0.0053251823
-0.077945553 -0.0091992794 0.0052866586
-0.077425875 -0.007085654 0.0052578412
-0.077033497 -0.0047647189 0.0052207764
-0.076408654 -0.0022609609 0.0051869066
-0.075665526 0.00027989392 0.0051558223
-0.075028583 0.0024577756 0.0051291743
-0.0742855 0.0049986416 0.0050980905
-0.073542371 0.0075394944 0.0050670211
-0.072905488 0.0097173909 0.0050403727
-0.072162353 0.012258247 0.0050092889
-0.071419276 0.014799113 0.0049782046
-0.070782326 0.016976994 0.004951572
-0.070145383 0.019154867 0.0049249241
-0.069402255 0.021695722 0.0048938403
-0.068659179 0.02423659 0.0048627555
-0.068022236 0.026414474 0.0048361225
-0.066916294 0.028849386 0.0048182416
-0.066173218 0.031390253 0.0047871717
-0.065472074 0.033450894 0.0047649266
-0.064430334 0.036003042 0.004742628
-0.063657127 0.038377523 0.0047159768
-0.062899768 0.039889865 0.0047069867
-0.077070981 -0.016644794 0.0054699974
-0.077134341 -0.014937815 0.0054321084
-0.076628886 -0.012440117 0.005394747
-0.075885817 -0.0098992512 0.0053636776
-0.075298429 -0.0077056801 0.0051128231
-0.074685536 -0.0055174609 0.0049740607
-0.061873119 0.038014159 0.0047775581
-0.061236177 0.040192038 0.0047509251
-0.060080037 0.042349629 0.0047403835
-0.059236612 0.044335891 0.0047240211
-0.075871639 -0.019949876 0.005575886
-0.075831965 -0.017794566 0.0055316817
-0.074951857 -0.015620958 0.0053305225
-0.074184611 -0.013161111 0.0050460398
-0.058316093 0.042097192 0.0047990144
-0.057573017 0.044638053 0.0047679599
-0.056543138 0.046543598 0.0047589331
-0.075241074 -0.028341923 0.0057717878
-0.074689694 -0.026007721 0.0057392651
-0.074298292 -0.023659643 0.0057016136
-0.074048802 -0.021075938 0.0055921664
-0.07341817 -0.018521499 0.0050362414
-0.072651707 -0.016463876 0.0046991697
-0.054396264 0.046074275 0.004833688
-0.05356285 0.048115987 0.0048158732
-0.052240375 0.050303806 0.0048097307
-0.051312972 0.053250492 0.004775661
-0.050910495 0.055299852 0.0047446452
-0.050294161 0.056958448 0.0047283228
-0.074456781 -0.033783317 0.0056599798
-0.07448446 -0.031634904 0.0053081247
-0.07378263 -0.029091604 0.0050811842
-0.073019028 -0.026542725 0.0051339222
-0.072380327 -0.024358874 0.0051072068
-0.071688585 -0.021807455 0.0048242193
-0.049733296 0.052592222 0.0048372922
-0.04909635 0.054770108 0.0048106601
-0.048316251 0.057192702 0.0047831656
-0.04688454 0.059639923 0.0047748825
-0.073369935 -0.039000463 0.006052956
-0.073377222 -0.036870841 0.0060078781
-0.072941117 -0.034454506 0.0054141805
-0.072398655 -0.032285869 0.0049401764
-0.071652509 -0.029734544 0.0049089734
-0.070906378 -0.027183224 0.004877755
-0.070266806 -0.024996383 0.0048509901
-0.046176333 0.05667527 0.004858763
-0.045433201 0.059216119 0.004827694
-0.044796258 0.061394006 0.0048010461
-0.043766432 0.063299559 0.0047920193
-0.071564406 -0.04252195 0.0061817542
-0.071649879 -0.040219076 0.0061306292
-0.071115479 -0.037737671 0.0056566987
-0.070487991 -0.035217416 0.005059707
-0.069848418 -0.033030573 0.0050329571
-0.069102228 -0.030479275 0.0050017545
-0.068474852 -0.027965194 0.0049677324
-0.042256504 0.060652353 0.004893437
-0.041462071 0.063099429 0.0048658806
-0.040065236 0.065002881 0.0048679858
-0.070189528 -0.045182247 0.0062793498
-0.069865301 -0.043175705 0.006246882
-0.069272384 -0.040683206 0.0054617897
-0.068577282 -0.038148977 0.0051792227
-0.067937709 -0.035962142 0.0051524732
-0.067298196 -0.033775281 0.0051257228
-0.038973622 0.06245156 0.0049547432
-0.038230486 0.064992413 0.0049236743
-0.037251346 0.066545054 0.0049205404
-0.068651192 -0.048257999 0.0063906657
-0.068346798 -0.045998789 0.006241072
-0.067817695 -0.043863293 0.0056561329
-0.067137539 -0.041338615 0.0052899774
-0.066391341 -0.038787305 0.0052587455
-0.066116117 -0.036494069 0.0052187368
-0.036053542 0.0643567 0.0050028772
-0.035416592 0.066534586 0.0049762293
-0.034480985 0.068723761 0.004958367
-0.067361981 -0.051313531 0.0064940378
-0.066693582 -0.049143814 0.0062540947
-0.065956943 -0.046813801 0.0055244174
-0.065333448 -0.04463464 0.0054139616
-0.065019459 -0.042208869 0.0053723394
-0.065147303 -0.039941791 0.0053206561
-0.032496523 0.068439737 0.0050243335
-0.031689245 0.070863366 0.004997666
-0.065056175 -0.054560859 0.0066321502
-0.065094702 -0.052448388 0.00658648
-0.064303242 -0.050099954 0.0061320439
-0.06342274 -0.047566209 0.0055334782
-0.062948197 -0.045557223 0.0055054869
-0.029213633 0.070238948 0.0050856546
-0.028380219 0.072280675 0.0050678393
-0.027085735 0.074148349 0.0050675846
-0.063583173 -0.057716019 0.0067431708
-0.063191839 -0.055367928 0.0067055337
-0.062554881 -0.053190041 0.0066788858
-0.061925296 -0.050719123 0.0059787263
-0.061236858 -0.048204511 0.0056130001
-0.061174776 -0.04664024 0.0055818837
-0.026056416 0.071534589 0.0047898917
-0.025399933 0.073853046 0.0051247799
-0.024464322 0.076042205 0.0051069176
-0.062228572 -0.060692154 0.0068468386
-0.061543748 -0.05852104 0.0066788225
-0.060747653 -0.056185063 0.0062128934
-0.060150795 -0.054031808 0.0059354086
-0.059526939 -0.051552162 0.0057352502
-0.059364878 -0.049014889 0.0056866519
-0.022867633 0.073412634 0.0044601085
-0.022393102 0.075673163 0.0051003154
-0.021714628 0.077701628 0.0051550549
-0.05989477 -0.063619353 0.0069790487
-0.059857011 -0.06175115 0.0068638558
-0.059252381 -0.059436254 0.0062175565
-0.058268253 -0.056983415 0.0058877328
-0.05762868 -0.054796569 0.0058609834
-0.057617005 -0.052953839 0.005822463
-0.019845165 0.075258143 0.0047960849
-0.019196967 0.077557415 0.0052341903
-0.018175064 0.079031907 0.0052340161
-0.058120254 -0.066304423 0.007089268
-0.058058422 -0.064746551 0.0070583196
-0.057429105 -0.062320624 0.0062757209
-0.056721888 -0.059808575 0.0059940051
-0.056200013 -0.057686266 0.005965054
-0.056384586 -0.055951066 0.00592288
-0.017495342 0.074317858 0.0043532485
-0.016758762 0.076590262 0.0049947319
-0.01602027 0.078993641 0.0052999631
-0.01523278 0.080339596 0.0052953907
-0.05640116 -0.06749589 0.00716634
-0.055946082 -0.065455705 0.0066923415
-0.055282094 -0.062998228 0.0061047454
-0.054535948 -0.060446899 0.0060735275
-0.054838218 -0.05877623 0.0060291518
-0.014664616 0.076036833 0.0046754992
-0.013810441 0.078233287 0.005282701
-0.013163348 0.080298141 0.0053588166
-0.054252695 -0.070585638 0.0072963824
-0.054101631 -0.06868694 0.007135848
-0.053478006 -0.06629426 0.0062287445
-0.052731864 -0.063742921 0.0061975261
-0.052338891 -0.061385177 0.0061597042
-0.01138443 0.077540621 0.0047827568
-0.010560382 0.080157138 0.0054404726
-0.0091122463 0.08196681 0.0054461053
-0.052181941 -0.071584314 0.0073800213
-0.05161953 -0.069512382 0.0067696502
-0.051045474 -0.06710349 0.0063193096
-0.050828449 -0.064536124 0.0062717418
-0.0088231908 0.07692828 0.0045603807
-0.0080078309 0.079521611 0.0052808523
-0.007213355 0.081839122 0.0055061961
-0.0061272029 0.083196357 0.0055104252
-0.049810085 -0.074246824 0.0075078271
-0.049989723 -0.072373077 0.0072809593
-0.049484469 -0.069969639 0.006526961
-0.049683671 -0.068193458 0.0063834069
-0.0066372571 0.076289952 0.0046399031
-0.0058043092 0.07906244 0.0049401852
-0.0051005515 0.081320643 0.0055809966
-0.0044458541 0.08302056 0.0055649658
-0.048258401 -0.075225241 0.0075753462
-0.047548443 -0.073109768 0.0068017468
-0.047216132 -0.071023889 0.0065176524
-0.0040870309 0.075545251 0.0047326842
-0.0033408974 0.078096576 0.0047014663
-0.0028270544 0.080310486 0.0053135864
-0.0022224635 0.082745589 0.0056379391
-0.04609308 -0.077696122 0.0076928656
-0.046039715 -0.076155744 0.0075786207
-0.045027032 -0.073904864 0.0066445628
-0.045222737 -0.071869723 0.0065957042
-0.0016019964 0.075478919 0.0048091644
-0.00079061143 0.077351846 0.0047942325
-0.00026905601 0.07982111 0.0053297644
0.00025314369 0.082121149 0.0057259277
0.0015951587 0.08356785 0.005736012
-0.043964084 -0.078880653 0.0077821808
-0.043544106 -0.076998234 0.0071992734
-0.042947728 -0.074907668 0.0067285234
0.0002402984 0.075468399 0.0048650508
0.0013953239 0.07671351 0.0048737554
0.0019956785 0.079024293 0.0049432828
0.0027988902 0.08117447 0.0056408788
0.0034940448 0.083440155 0.0057961028
-0.041951507 -0.079693496 0.0078601586
-0.041391306 -0.077708468 0.0069457674
-0.040926829 -0.075723849 0.0068068043
0.0032376256 0.076703019 0.0049296417
0.0042207716 0.078262053 0.0049265279
0.0049324627 0.080667868 0.0052308924
0.0057130344 0.083284654 0.0058664526
0.0069694617 0.084887654 0.0058706468
-0.039110653 -0.082098976 0.0079967007
-0.039411694 -0.080435157 0.0079525346
-0.038851142 -0.078477532 0.0069275917
-0.038789049 -0.07691326 0.0068964604
0.0063844374 0.078223631 0.0049927109
0.0075171916 0.080068655 0.004988106
0.0082676653 0.082597502 0.0058330512
0.0090962648 0.084529243 0.0059424811
-0.037236303 -0.082961485 0.0080715371
-0.036894482 -0.081253238 0.0077122785
-0.036418613 -0.079286769 0.0070181563
0.010030272 0.079442702 0.0050772643
0.010845603 0.08198256 0.0056320708
0.011599866 0.084224969 0.0060245669
-0.035214618 -0.083926141 0.0081529608
-0.034740735 -0.081994653 0.0073482962
-0.034457006 -0.08035408 0.0070999162
0.01235998 0.079050109 0.0051559415
0.013060465 0.081454843 0.0054599843
0.013712678 0.083706491 0.0060993675
0.014500111 0.085052468 0.0060947952
-0.032907508 -0.085140847 0.0080606639
-0.032204267 -0.082792133 0.0072194259
-0.032870881 -0.08101505 0.007161777
0.014859797 0.078583844 0.0052413335
0.015487447 0.08059521 0.0052948929
0.016270062 0.082740612 0.0059968727
0.016923569 0.08468248 0.0061758496
-0.030889204 -0.087651595 0.0083622066
-0.030371739 -0.085919343 0.0080078002
-0.029819012 -0.083714709 0.0073109511
0.017438164 0.078160591 0.0053281491
0.018100005 0.079747535 0.0053147385
0.018739328 0.082005098 0.0059536025
0.019323057 0.084038079 0.0062619527
-0.028583927 -0.088521756 0.0084502287
-0.028197436 -0.086597949 0.0079210326
-0.027574722 -0.084539615 0.0073961527
0.019859552 0.077651314 0.0054120743
0.020285936 0.079109207 0.0053942613
0.020918787 0.081368662 0.0060328683
0.021500001 0.08340238 0.0063411407
-0.026278643 -0.089391932 0.0085382508
-0.025837328 -0.08738108 0.008080353
-0.025388792 -0.085177958 0.0074756751
0.022045491 0.077012993 0.0054915966
0.022471866 0.078470886 0.0054737981
0.023328463 0.080754653 0.0061662951
0.024196139 0.082746387 0.0064364788
-0.023738837 -0.090133592 0.0086306417
-0.023286032 -0.087938175 0.0080262693
-0.022838509 -0.085922658 0.0075684716
0.024231426 0.076374665 0.0055711195
0.025022095 0.077726178 0.0055665793
0.025839576 0.080003798 0.0058291727
0.026685743 0.082282037 0.006521516
-0.021503707 -0.090955123 0.0087155206
-0.020925926 -0.08872132 0.0081855897
-0.020288279 -0.086667374 0.0076612374
0.027572323 0.076981477 0.0056593455
0.028268455 0.079424843 0.0058790706
0.028862692 0.081646346 0.0066007185
0.029287325 0.08309827 0.0065829437
-0.019491067 -0.091767982 0.0087934993
-0.018743342 -0.089402884 0.0080991397
-0.01810235 -0.087305687 0.0077407602
0.030060522 0.074672483 0.0057831835
0.02975826 0.076343149 0.0057388679
0.030452153 0.078787163 0.0059585017
0.031039694 0.081010625 0.006679907
0.031464327 0.082462549 0.0066621318
-0.016951259 -0.092509642 0.0088858753
-0.016195439 -0.09016902 0.0081089139
-0.015342419 -0.087874264 0.0078361789
-0.013926174 -0.086547196 0.0078509906
0.031882163 0.074140541 0.0058494476
0.032308541 0.075598426 0.0058316644
0.032999739 0.07804323 0.0060511888
0.03357945 0.080268987 0.0067722974
0.034004081 0.081720911 0.0067545371
-0.014411447 -0.093251303 0.0089782961
-0.013647846 -0.090912953 0.008201601
-0.013209214 -0.088602692 0.0079159839
0.033703741 0.073608607 0.0059157261
0.034858767 0.074853726 0.0059244302
0.035547391 0.077299282 0.0061438764
0.036119256 0.079527326 0.0068647033
0.036543883 0.08097925 0.006846928
-0.012234505 -0.093887001 0.0090574836
-0.011464154 -0.091550618 0.0082810326
0.036980256 0.074333124 0.0059995172
0.037731092 0.076661617 0.0062233079
0.0382962 0.07889162 0.0069439062
0.038720831 0.080343544 0.006926131
-0.0097973617 -0.094441086 0.0091428338
-0.0089164935 -0.092294566 0.0083737206
-0.007279356 -0.090861775 0.0081428103
0.039701551 0.073835164 0.0060922657
0.040278688 0.075917654 0.006315995
0.040836006 0.078149959 0.0070362822
0.041260641 0.079601876 0.0070185219
-0.007048754 -0.095007338 0.0092378287
-0.006382979 -0.092968076 0.0087146442
-0.0058220727 -0.091287322 0.0081958305
0.042251781 0.073090456 0.006185032
0.042826347 0.075173728 0.0064086821
0.043375827 0.077408299 0.0071287029
0.043437645 0.078966163 0.0070977248
-0.0048718094 -0.095643044 0.0093170172
-0.0042073084 -0.093581565 0.0088767232
-0.0035295102 -0.091561176 0.0082709147
0.044437714 0.072452135 0.0062645543
0.044987433 0.074502066 0.0065715574
0.045552768 0.076772593 0.007207891
-0.002332004 -0.096384704 0.009409423
-0.0017736631 -0.094314419 0.009182537
-0.0013435838 -0.092199504 0.0083504366
0.046682063 0.071627215 0.0063497862
0.047342476 0.073811308 0.0068955338
0.047900867 0.075824261 0.0072988584
0.00031393577 -0.096763365 0.0094973771
0.00078422797 -0.094919503 0.0091648186
0.0012066424 -0.092944197 0.0084432326
0.048964169 0.070892975 0.0064342497
0.049815133 0.072933018 0.0068458226
0.050526198 0.074926309 0.0073971236
0.0017652703 -0.097187176 0.0095501747
0.0030376138 -0.095631957 0.0093890857
0.0038634953 -0.093324445 0.0085315453
0.051724102 0.070324399 0.0065296385
0.052214492 0.072310485 0.0070029339
0.052703205 0.074290588 0.0074763121
0.0051986421 -0.096219882 0.0096335709
0.006037191 -0.093930796 0.0087212007
0.0068666809 -0.091940843 0.008593169
0.0074796807 -0.090424418 0.008579704
0.053968448 0.06949947 0.0066148709
0.05439597 0.071673468 0.007082304
0.05488015 0.073654883 0.0075555146
0.0076454883 -0.096606076 0.0097156633
0.0085503627 -0.094586872 0.0091167595
0.0090508284 -0.092623845 0.008673586
0.0089369686 -0.090849958 0.0086327242
0.056655962 0.066906229 0.0067507261
0.056445923 0.068634726 0.0067849592
0.056815252 0.070933081 0.0074045165
0.05682262 0.072890654 0.0076303342
0.010490582 -0.096977241 0.009809481
0.011064515 -0.09525796 0.0094570303
0.011853899 -0.093383051 0.008774301
0.058370978 0.066009812 0.0068214582
0.058874581 0.068036675 0.0072109285
0.059264589 0.070179537 0.0077612684
0.012667523 -0.097612955 0.0098886834
0.013198346 -0.095798053 0.0098665021
0.013959577 -0.093871728 0.0089594238
0.014637229 -0.092316724 0.0088359332
0.060450289 0.065007031 0.0069054635
0.060945924 0.067273535 0.0076231556
0.061030779 0.069100954 0.0078373803
0.015144179 -0.098955259 0.0099918246
0.015738094 -0.096539699 0.0099588772
0.016225856 -0.094541617 0.0093311155
0.01669427 -0.092719607 0.008906614
0.062725291 0.061969068 0.0070382087
0.062529594 0.064004228 0.0069894539
0.063357189 0.066372909 0.0079651969
0.065021858 0.067935497 0.0079825828
0.01753483 -0.099822216 0.010082353
0.018277904 -0.097281359 0.010051299
0.018757079 -0.095116913 0.0094743473
0.019467991 -0.093012251 0.008996645
0.065000296 0.058931138 0.007170998
0.064522088 0.060811434 0.0071169515
0.065079883 0.063259505 0.0070822355
0.06594488 0.065717891 0.0077842739
0.065747529 0.067723595 0.0080089895
0.019633086 -0.10012852 0.010152254
0.020454854 -0.097917065 0.010130486
0.021110469 -0.095771223 0.009993881
0.021993417 -0.093456164 0.0091657266
0.022905212 -0.091764092 0.0090742018
0.066558346 0.057948694 0.0072388095
0.066883966 0.05996348 0.0072062048
0.067630105 0.062514797 0.0071750162
0.068062358 0.064894058 0.0071379137
0.022994662 -0.098658726 0.010222877
0.023631601 -0.096480839 0.010196229
0.024353614 -0.094104037 0.0097676888
0.02500443 -0.091684788 0.009136009
0.068430334 0.057138305 0.0073124915
0.069069907 0.059325162 0.0072857272
0.069720738 0.061796427 0.0072533372
0.069620341 0.063911632 0.0072056949
0.024808796 -0.099188484 0.010288877
0.025680212 -0.096882083 0.010266612
0.026724599 -0.094885208 0.010156021
0.027399117 -0.092511967 0.0096260933
0.028365834 -0.090369694 0.0092098936
0.070918463 0.054829329 0.0074363146
0.070980564 0.056393616 0.0074052727
0.071620136 0.058580466 0.0073785228
0.071906485 0.060573738 0.0073451693
0.029074028 -0.098070115 0.010394229
0.028985307 -0.095680319 0.010341205
0.029745379 -0.093162477 0.010227706
0.030680068 -0.09086965 0.009290386
0.031341907 -0.089282706 0.0092769163
0.072997838 0.053826522 0.0075203204
0.073530838 0.055648882 0.0074980389
0.073931709 0.057792418 0.0074649914
0.073868103 0.05950642 0.0074269138
0.031525116 -0.096421994 0.010433581
0.032268189 -0.093881123 0.010402497
0.033011314 -0.091525935 0.0098295286
0.033570018 -0.089438848 0.0093475804
0.074561693 0.053765457 0.0075688572
0.074988082 0.055223364 0.0075510289
0.034807995 -0.094622783 0.010494903
0.035449632 -0.091994181 0.01035885
0.035849769 -0.08967004 0.0095753176
0.037059717 -0.087985381 0.0094224047
0.037728079 -0.092717633 0.010543021
0.038329918 -0.090161227 0.0099736415
0.039174479 -0.087883659 0.009484224
0.040613815 -0.086649626 0.0095016947
0.039905023 -0.093353324 0.010622224
0.040541973 -0.091175444 0.010595591
0.041453909 -0.088808581 0.0099061579
0.042327501 -0.086584918 0.0095521566
0.043081779 -0.091917105 0.010687968
0.043841124 -0.089392498 0.010595169
0.044722158 -0.0869838 0.010049886
0.045174237 -0.084915429 0.0096030161
0.046264816 -0.083552592 0.0096072406
0.046364661 -0.090117902 0.010749289
0.047107741 -0.087577023 0.010718219
0.047519844 -0.08541695 0.01018481
0.048544995 -0.083244652 0.0096697044
0.050009836 -0.080887996 0.0096642841
0.050884865 -0.078572094 0.009641923
0.049284745 -0.088212736 0.010797407
0.049921684 -0.086034857 0.010770774
0.050713018 -0.083533652 0.010575185
0.051505093 -0.081029966 0.010379563
0.052176051 -0.078873478 0.01024323
0.052818533 -0.077161722 0.010271057
0.052461438 -0.08677651 0.01086315
0.053204574 -0.084235653 0.010832066
0.053947646 -0.081694789 0.010800982
0.054584589 -0.079516903 0.010774349
0.05511535 -0.077702001 0.010752152
0.089579962 0.037511893 0.0083653172
0.090682387 0.030464729 0.0085471375
0.09083318 0.032518514 0.0087943226
0.090318859 0.034613565 0.0088490024
0.091482617 0.025088251 0.0086846277
0.091660172 0.02677704 0.0086544137
0.092021793 0.029390292 0.00861031
0.092431188 0.032050218 0.0093171019
0.092389405 0.020076245 0.0088176494
0.092566967 0.021765035 0.0087874513
0.092964306 0.024018424 0.008933913
0.093602046 0.026273338 0.0092240637
0.094067968 0.02865619 0.0095343124
0.094249316 0.031121669 0.0096418094
0.094298281 0.033383697 0.0095956028
0.067621097 -0.070562735 0.0099790543
0.093380556 0.016028605 0.008932909
0.093722925 0.0186713 0.0089709898
0.094439834 0.020924261 0.0092787342
0.095101871 0.023234541 0.0096908305
0.095778041 0.025747381 0.0098012546
0.095820867 0.027817344 0.0097589288
0.071011692 -0.068704508 0.010042381
0.071996041 -0.066652261 0.010028887
0.073186517 -0.064513259 0.010019759
0.094505258 0.0083815614 0.0091280527
0.094662778 0.010610264 0.0090858731
0.094810165 0.013111668 0.009037626
0.095359363 0.015391525 0.0092920624
0.095742419 0.017783411 0.0096600875
0.09658926 0.020008856 0.0099467039
0.09674608 0.022228437 0.0099046687
0.074173264 -0.067144513 0.010605395
0.07501594 -0.064639464 0.010327911
0.07556095 -0.062140722 0.010041573
0.076629266 -0.060177982 0.010032473
0.095305488 0.0030050639 0.0092655281
0.095589608 0.0050583482 0.0092308614
0.095984735 0.0073241713 0.0093770158
0.096583046 0.0096997796 0.0096300691
0.097162932 0.012084333 0.010047637
0.097772442 0.014561313 0.010097263
0.097933851 0.017088166 0.01004889
0.097945482 0.018923353 0.010010572
0.077263795 -0.065258645 0.011159389
0.077777117 -0.062663175 0.010786667
0.078550048 -0.060531285 0.010431558
0.079162739 -0.058146749 0.010149664
0.080208905 -0.055645317 0.010045169
0.081075937 -0.05376225 0.010031681
0.095359512 -0.0049227304 0.0094342362
0.095643699 -0.0028694707 0.0093995696
0.096005313 -0.00025621156 0.009355451
0.096899264 0.0020814734 0.0095833661
0.097417027 0.0042364504 0.0098037794
0.098113902 0.0065865316 0.010132684
0.098788358 0.0091091385 0.010242857
0.099065602 0.011307634 0.010204915
0.080820829 -0.061175615 0.011180875
0.081377499 -0.058504637 0.010941273
0.082152881 -0.056051809 0.010612831
0.082897246 -0.053899471 0.010339816
0.083723702 -0.051838163 0.010071203
0.084791355 -0.049416687 0.010052449
0.085864633 -0.046853006 0.010030838
0.08653447 -0.044833235 0.010008524
0.087614693 -0.042221237 0.0099861138
0.088254265 -0.040034395 0.0099593643
0.093477391 -0.022175172 0.0097408984
0.09390372 -0.020717263 0.0097230552
0.094543293 -0.018530415 0.0096963057
0.095207699 -0.01571787 0.0096571362
0.095671274 -0.013321393 0.0096206563
0.096064247 -0.010963638 0.0095828641
0.096515007 -0.0083119245 0.009540624
0.096993618 -0.005832097 0.0096695982
0.097612664 -0.0034091028 0.010004142
0.098111957 -0.00087195338 0.010124823
0.099079773 0.0012570035 0.010417153
0.099479094 0.0033917159 0.010384213
0.09975639 0.005590193 0.010346271
0.085120924 -0.054551706 0.011171276
0.085757867 -0.05237383 0.011144629
0.086646371 -0.049867108 0.010785089
0.087488838 -0.04734306 0.010534991
0.088176534 -0.045169845 0.010398801
0.088921674 -0.042622015 0.010367648
0.08981812 -0.04009546 0.010007946
0.090457685 -0.037908614 0.0099811964
