# .PCD v0.7 - Point Cloud Data file format
VERSION 0.7
FIELDS x y z
SIZE 4 4 4
TYPE F F F
COUNT 1 1 1
WIDTH 1275
HEIGHT 1
VIEWPOINT 0 0 0 1 0 0 0
POINTS 1275
DATA ascii
-0.05942867 0.036300946 0.010107256
-0.057979263 0.038147096 0.010032522
-0.056471039 0.040049251 0.010066899
-0.054672215 0.041889116 0.0098941224
-0.053170867 0.043817125 0.009844115
-0.051483609 0.045786239 0.0098288357
-0.049793202 0.047742147 0.0098557351
-0.048287451 0.049641453 0.0098902006
-0.046472073 0.051414378 0.0099344067
-0.044965874 0.05329977 0.010005026
-0.043272592 0.055185035 0.010222006
-0.041309193 0.056916371 0.010198808
-0.040348154 0.058042847 0.010178043
-0.069329426 0.019512758 0.010957302
-0.068389073 0.020900048 0.010927406
-0.066968128 0.022850521 0.010887126
-0.065567918 0.025061855 0.010837701
-0.064298876 0.026998786 0.010704233
-0.062779047 0.029069452 0.010314881
-0.061249271 0.031132037 0.0099827414
-0.059713524 0.032884523 0.0096782502
-0.058024626 0.034864113 0.0096417964
-0.056618527 0.037084728 0.0095921578
-0.055170882 0.038781516 0.0095609007
-0.053481985 0.040761109 0.009524432
-0.048174031 0.046982706 0.0094097983
-0.046967693 0.048396721 0.0093837529
-0.044933006 0.050290927 0.0093563329
-0.043117013 0.052092422 0.0093281101
-0.041838616 0.053845886 0.0095997993
-0.040053576 0.05565574 0.0096631553
-0.038464308 0.057496555 0.0099798627
-0.036726847 0.059220269 0.010131553
-0.034532849 0.06086871 0.010186663
-0.033049941 0.062036797 0.010173833
-0.071504764 0.013827743 0.011109752
-0.070156693 0.016034875 0.011059537
-0.06871596 0.018033613 0.010795615
-0.067320451 0.019793445 0.010427725
-0.065650024 0.021792937 0.010279085
-0.064007185 0.023844713 0.0099057695
-0.062790073 0.025598422 0.0098684952
-0.061656702 0.027458396 0.0098261293
-0.038498856 0.054659538 0.0093241017
-0.036594946 0.056302372 0.0093027987
-0.035054687 0.057780672 0.0092805261
-0.033365306 0.05966619 0.0094973715
-0.031440899 0.061734919 0.0099625317
-0.029668998 0.063393779 0.010188462
-0.02799678 0.064539477 0.010179769
-0.072724208 0.0080089653 0.011283723
-0.071591027 0.010397069 0.011080642
-0.070165262 0.012468648 0.010595598
-0.068710305 0.014518218 0.010278572
-0.067418754 0.016983701 0.010075722
-0.066253908 0.018921506 0.010031311
-0.065288827 0.020052709 0.010010462
-0.032234706 0.058796249 0.0092966463
-0.030072929 0.060512356 0.0092774862
-0.028019596 0.062085435 0.0093946112
-0.026338143 0.063750379 0.0099023003
-0.024538066 0.065173231 0.010220127
-0.022380445 0.066562153 0.010211872
-0.073308133 0.0034481909 0.011426735
-0.072680756 0.0049980013 0.01138577
-0.071521305 0.0067950753 0.011012425
-0.070043266 0.0088281464 0.010394231
-0.068950348 0.010799751 0.010256431
-0.025870925 0.061675798 0.0093132798
-0.024432965 0.062543511 0.0093097407
-0.022784606 0.06412749 0.00964972
-0.021043487 0.065802112 0.010061159
-0.019330895 0.067367777 0.010239146
-0.07354071 -0.00024470582 0.011546812
-0.072487511 0.0016126119 0.01133632
-0.071043663 0.0034658951 0.010799396
-0.070063785 0.0054398039 0.010416887
-0.069291964 0.007346258 0.010366503
-0.021499578 0.063078672 0.0093440292
-0.019339403 0.064656593 0.0093294606
-0.017429579 0.06637954 0.0097726062
-0.015782285 0.067905769 0.010061965
-0.014436411 0.0690329 0.010270424
-0.074171148 -0.0055440674 0.011713822
-0.07364282 -0.0039271964 0.011668843
-0.072653681 -0.0019793045 0.011370803
-0.071116835 -0.00014944474 0.010817063
-0.069925077 0.0020246555 0.010534224
-0.015880404 0.065371759 0.0093671
-0.014175427 0.066763945 0.0096236421
-0.012547698 0.068206452 0.0099470094
-0.010797263 0.069498122 0.010319663
-0.073453575 -0.0072365161 0.011783541
-0.072191671 -0.005310148 0.011074104
-0.071029939 -0.0035228697 0.010701139
-0.070399873 -0.0019665831 0.010660014
-0.012494883 0.065905325 0.0094095292
-0.010661008 0.067164391 0.0093998807
-0.0088608721 0.068823807 0.010043317
-0.0071581039 0.069963351 0.010368932
-0.074155807 -0.012366599 0.011943591
-0.073410012 -0.010732422 0.011901905
-0.071894445 -0.008975191 0.011244361
-0.070899814 -0.0067504379 0.010812015
-0.0073651364 0.0677201 0.0094399676
-0.0055326829 0.068879828 0.0099673355
-0.0040270286 0.070213079 0.010416371
-0.075266741 -0.018229222 0.012120985
-0.074305698 -0.01710275 0.012100249
-0.073187657 -0.014389026 0.012028907
-0.07186652 -0.012404898 0.011485347
-0.070567816 -0.010940878 0.010958889
-0.0035288655 0.067783207 0.0096730618
-0.0021948805 0.069119155 0.010085521
-0.00036030327 0.070330538 0.010477779
-0.074620917 -0.019752432 0.01218373
-0.073179387 -0.018062709 0.012152596
-0.071576677 -0.016062785 0.011613547
-0.070318833 -0.014083684 0.011069058
-0.00018019574 0.068000317 0.009558659
0.0015782451 0.069622852 0.010285993
0.0030248247 0.070688032 0.010526133
-0.072649799 -0.021432398 0.012275417
-0.071045965 -0.019439502 0.011736634
-0.069830731 -0.017470997 0.011191706
0.0016127068 0.067557633 0.0096055241
0.003320972 0.068391539 0.0097080003
0.0051441733 0.069603406 0.010171519
0.0071597998 0.070860364 0.010594072
-0.070951596 -0.022705939 0.012148396
-0.069713265 -0.020896988 0.011509181
-0.06850639 -0.019210272 0.011273815
0.0071563888 0.068585448 0.0096698115
0.0088652801 0.0700574 0.010469555
0.010612272 0.071030736 0.010649907
0.0092320498 0.067901783 0.0097298156
0.010553597 0.068927944 0.0099917818
0.012143361 0.070284061 0.010577227
-0.069536991 -0.030894903 0.012649222
-0.067855157 -0.028923586 0.012612897
-0.066413581 -0.027233897 0.012581761
0.012397056 0.067890637 0.0097866403
0.014061203 0.068902813 0.010220096
0.015737738 0.069969773 0.010776998
-0.068122327 -0.031516943 0.012695373
-0.06687057 -0.029916828 0.012481906
-0.065440454 -0.02766593 0.011779726
0.015943386 0.067345165 0.0098682335
0.017432895 0.068818361 0.01051239
0.019127155 0.069610216 0.010849527
-0.069041103 -0.037154224 0.012868625
-0.067620158 -0.035203744 0.012828331
-0.066497214 -0.033421662 0.012606478
-0.065185145 -0.032064985 0.012321395
0.017782701 0.066475302 0.0099302894
0.019499201 0.067304894 0.01018317
0.020744331 0.069083087 0.010896093
-0.067769051 -0.038627502 0.012940888
-0.066213951 -0.03666953 0.012735923
-0.064880125 -0.035201684 0.011987585
-0.064200178 -0.033625975 0.011835528
0.02176491 0.066134006 0.010012788
0.023004202 0.06791614 0.010725495
0.02470989 0.068743192 0.010978254
-0.065902308 -0.040315799 0.013030949
-0.064306647 -0.038368694 0.012326748
-0.063406393 -0.036988888 0.011962808
0.023648323 0.064992771 0.010084746
0.025058273 0.066368081 0.010480631
0.026422666 0.067672521 0.011044807
-0.063946679 -0.042002153 0.012997472
-0.062580943 -0.040085755 0.012081697
0.025085524 0.064158611 0.010138442
0.026857121 0.0647953 0.010232011
0.028504873 0.066127092 0.010919486
0.030375214 0.066832997 0.011143531
-0.062029406 -0.043709751 0.012630434
-0.060895249 -0.042059734 0.012178154
0.029098827 0.063424475 0.010234701
0.030455265 0.064693764 0.010633155
0.031762514 0.065893814 0.011199863
-0.061952412 -0.047087003 0.013329119
-0.060355026 -0.045164309 0.01254239
-0.059743427 -0.043285657 0.012239941
0.032095533 0.063431174 0.010488087
0.033607066 0.064643413 0.011149711
-0.059981294 -0.048766967 0.013420806
-0.058509633 -0.046877056 0.012382706
0.033939667 0.062229235 0.010361239
0.035546213 0.063227497 0.010856652
0.036885388 0.064202756 0.01134812
-0.058010187 -0.050446935 0.013512448
-0.056666732 -0.048838511 0.012481582
0.037620444 0.06167179 0.010612391
0.038815126 0.063044421 0.011421471
-0.058002517 -0.053858209 0.013627364
-0.056352336 -0.051917605 0.013257929
-0.055101078 -0.050295006 0.01255851
0.039608102 0.060572881 0.010518028
0.040755242 0.061755661 0.011499411
-0.056031406 -0.055538181 0.013719036
-0.054385588 -0.053608622 0.013266488
-0.053231988 -0.052254349 0.012657759
0.041587468 0.058885854 0.010610065
0.042742364 0.06023737 0.011502557
-0.054060295 -0.057218157 0.013810678
-0.052431416 -0.055318434 0.013108664
-0.051252574 -0.053941399 0.012749783
0.0435565 0.057329789 0.010697541
0.044687148 0.05852611 0.011678168
-0.051927175 -0.058739211 0.012899122
-0.050479535 -0.057042427 0.012867865
-0.049521513 -0.055346996 0.012827956
0.045787528 0.055794615 0.010788974
0.046995766 0.057119459 0.011499814
-0.049947802 -0.06042622 0.012991189
-0.048500165 -0.058729436 0.012959932
-0.04781783 -0.057357248 0.012925929
0.047702089 0.054260541 0.010874706
0.048983965 0.05556551 0.011520806
0.050352529 0.056615889 0.011843461
-0.048449185 -0.06206258 0.013740121
-0.046803538 -0.060175456 0.01303883
0.049704824 0.052944358 0.010954698
0.050734133 0.054181922 0.011431786
0.051197276 0.05589591 0.01188274
-0.046486672 -0.063650772 0.013761819
-0.044824161 -0.061862472 0.013130852
0.051711857 0.050908152 0.011058974
0.052709095 0.052498948 0.011523613
-0.044292383 -0.065246299 0.013254176
-0.042844743 -0.063549511 0.013222921
0.053422324 0.049287532 0.011143998
0.054592744 0.05073113 0.011866846
-0.042595755 -0.066692322 0.013333074
-0.041148167 -0.064995505 0.013301817
-0.039900292 -0.064105324 0.013294124
0.05505408 0.047994472 0.011216593
0.056346692 0.049344338 0.011777968
0.057955366 0.050136026 0.012197006
-0.040827755 -0.068507768 0.01436389
-0.039168749 -0.066682562 0.013393841
-0.038203668 -0.065551341 0.013373022
0.057056822 0.046678275 0.011296568
0.058352944 0.047688447 0.011786071
0.059711192 0.048963804 0.012267741
-0.037189379 -0.068369575 0.013485908
-0.036224298 -0.067238361 0.013465059
0.060328972 0.046004891 0.011877951
0.061854884 0.047722463 0.012147599
-0.035492752 -0.069815591 0.013564806
-0.034221556 -0.068554536 0.01354505
0.061897706 0.045483012 0.011423106
0.062862784 0.046614215 0.01140226
-0.03315533 -0.069365598 0.013591348
0.069895402 0.02536788 0.013243084
0.069264971 0.020068517 0.013410109
0.069707043 0.021853475 0.013357922
0.070822783 0.023604676 0.013318942
0.072504677 0.025575975 0.013282646
0.067988716 0.016292367 0.013514373
0.069672085 0.018284284 0.013204464
0.071386613 0.020081818 0.012822033
0.072872385 0.021772487 0.012962266
0.074475743 0.023896042 0.013374287
-0.0088679912 -0.076389447 0.014260716
0.071475208 0.017782815 0.01252568
0.073062904 0.018662466 0.012524421
0.074581079 0.020358587 0.012744612
0.076165289 0.022456052 0.013452862
-0.0078951875 -0.078683861 0.014355251
0.075105086 0.017228933 0.012609045
0.076391593 0.018893626 0.012883895
0.078136407 0.02077608 0.013544534
0.076565079 0.013444734 0.012762359
0.076802842 0.01528463 0.012704694
0.078379035 0.017173812 0.012669249
-0.00049712631 -0.079825759 0.014525593
0.07743226 0.012007888 0.012826174
0.078661241 0.013611934 0.012794116
0.080350153 0.015591527 0.012757632
0.0012401359 -0.080834083 0.014590462
0.0030641011 -0.079449683 0.01457643
0.0047647627 -0.078728341 0.014582501
0.07794515 0.0093379207 0.012925117
0.078910224 0.010469115 0.012904285
0.080357872 0.012165905 0.012873014
0.0049307682 -0.080823563 0.014655937
0.0063887564 -0.079257704 0.014629289
0.0079090279 -0.078477584 0.014630142
0.07860139 0.0043826955 0.013103512
0.080021366 0.0064286697 0.013060001
0.0065444116 -0.081222005 0.014698117
0.0077922419 -0.080331773 0.014690424
0.0090124514 -0.079092398 0.014670492
0.079091683 0.0015226565 0.013208455
0.07949122 0.0031358725 0.013161312
0.08106292 0.0050821444 0.013123854
0.080622308 0.0021718491 0.013213917
0.079672672 -0.0058105928 0.013465497
0.080279708 -0.0068163932 0.013510144
0.081333004 -0.005467325 0.013483553
-0.060827442 0.029095316 0.008785123
-0.059879124 0.03049423 0.0087549724
-0.058688536 0.032177128 0.0087196035
-0.05699262 0.034165036 0.0086829765
-0.055580579 0.036394905 0.0086331395
-0.054126926 0.038098823 0.0086017605
-0.05243095 0.040086702 0.0085651344
-0.051018916 0.042316563 0.0085152965
-0.049565256 0.044020481 0.0084839026
-0.047816798 0.045823481 0.0084544355
-0.045889396 0.047754236 0.0084238602
-0.044342671 0.049238708 0.0084015047
-0.042519022 0.051047694 0.0083731767
-0.040475853 0.052949846 0.0083456226
-0.064696133 0.021111611 0.0089846887
-0.063242473 0.022815529 0.0089532947
-0.061676737 0.025110597 0.0089040184
-0.060418434 0.0272753 0.0088536348
-0.058815002 0.029222403 0.0083163744
-0.057334818 0.031134155 0.0081116632
-0.055830769 0.032987591 0.0081428494
-0.054088026 0.034959417 0.0077073369
-0.052236874 0.03674677 0.0074300533
-0.050775617 0.038459543 0.0073984396
-0.049173616 0.040434796 0.0074106241
-0.047573291 0.042346004 0.0073930677
-0.046177663 0.044336315 0.0075329617
-0.044474624 0.046332464 0.007496208
-0.042762503 0.048256248 0.0076843938
-0.041171361 0.050139748 0.0078818984
-0.039387718 0.05192025 0.0080994368
-0.037886344 0.053685695 0.008367057
-0.035969723 0.055275299 0.0083477665
-0.033926554 0.057177454 0.0083202105
-0.067595743 0.014263876 0.0091633247
-0.066523917 0.016012944 0.0091236141
-0.065004505 0.017962215 0.0088349478
-0.063580602 0.019718731 0.0085510928
-0.061881121 0.021710763 0.0085143875
-0.060200311 0.023739938 0.0083093038
-0.058787495 0.025544161 0.0078568384
-0.057296414 0.027551897 0.0075419247
-0.055502288 0.029475657 0.0070802802
-0.053976778 0.031416472 0.0070779026
-0.052498903 0.03326175 0.0070999535
-0.050536923 0.034958653 0.0067699328
-0.048826866 0.03696312 0.0067330357
-0.047361042 0.038681198 0.0067013828
-0.04573705 0.040864635 0.0067998338
-0.044214938 0.042858642 0.006867121
-0.042739376 0.044701178 0.0068892157
-0.040938169 0.046601411 0.0067495778
-0.039327368 0.048498791 0.0070147142
-0.037723038 0.050413322 0.0072124461
-0.035918836 0.052185982 0.0074518714
-0.034389898 0.054123934 0.0078428416
-0.032562032 0.055911895 0.0078867674
-0.031172484 0.057750858 0.0081680883
-0.029609798 0.059506658 0.0083188377
-0.027861744 0.060837042 0.0083052656
-0.068582319 0.0088920044 0.0093264282
-0.06778571 0.010719948 0.0092791561
-0.066705815 0.012543389 0.0089035016
-0.065054342 0.014598842 0.0085093863
-0.063135467 0.016451793 0.0079461457
-0.061687451 0.018185798 0.0078024575
-0.059973311 0.020167494 0.007849778
-0.058288019 0.022207685 0.0076166121
-0.056880895 0.024044957 0.0070239482
-0.055547774 0.02575249 0.0069902902
-0.054309677 0.02798612 0.0069372114
-0.053056147 0.0296873 0.0069023399
-0.044505689 0.039709546 0.0067176921
-0.04279558 0.041713983 0.0066807512
-0.041043472 0.04318805 0.0066624368
-0.039047029 0.044948451 0.0066387895
-0.037336964 0.046952918 0.0066018924
-0.035871141 0.048670996 0.0065702396
-0.03416108 0.050675463 0.0065332679
-0.032451268 0.052641723 0.0066088401
-0.03086547 0.054428406 0.0071026357
-0.029144054 0.056324124 0.0074334536
-0.027747562 0.058367629 0.0079233442
-0.025961718 0.060108166 0.008209697
-0.024126781 0.061437432 0.0083516659
-0.022682784 0.062308758 0.0083481064
-0.068971418 0.0048910915 0.0094540808
-0.067845844 0.0071254289 0.0092322025
-0.066247962 0.009230528 0.0084671276
-0.064560898 0.010771123 0.0080006588
-0.062906735 0.012843357 0.0075434661
-0.061228469 0.014891692 0.0072542867
-0.059762649 0.016609766 0.0072226338
-0.058052532 0.018614205 0.0071856929
-0.056673739 0.020681204 0.007140791
-0.055714626 0.022803672 0.0070864838
-0.054758456 0.024214266 0.0070560928
-0.032527167 0.050272025 0.0065760026
-0.031040363 0.051724944 0.0065536331
-0.029095044 0.053006858 0.0065452131
-0.027272347 0.054672118 0.0065842113
-0.025573 0.056549296 0.0069058239
-0.024075303 0.058412917 0.0073106457
-0.022490736 0.060411293 0.0078593818
-0.02083456 0.062071215 0.0083890604
-0.018819379 0.063675538 0.00837103
-0.069669679 0.00033620372 0.0095948474
-0.069036983 0.0018990015 0.0095535628
-0.067589149 0.0034743182 0.0091094393
-0.065978132 0.0055600223 0.0084216883
-0.064352445 0.0076487637 0.0077757966
-0.062644392 0.0091745779 0.007421379
-0.061043777 0.011437182 0.0073738117
-0.059224222 0.013183484 0.007347526
-0.057891104 0.014891017 0.0073138522
-0.05659296 0.0170405 0.0072647054
-0.025578154 0.053548317 0.0065897079
-0.023567026 0.05512308 0.0065726181
-0.022173755 0.056976177 0.0067170467
-0.020588361 0.058769304 0.0070367707
-0.019015694 0.060673393 0.0076217512
-0.017237611 0.062413048 0.007908009
-0.01566535 0.064394578 0.0083120903
-0.013945196 0.065652259 0.008391453
-0.069951087 -0.0041325372 0.0097401505
-0.068900287 -0.0016942512 0.0094767204
-0.067374222 0.0003438378 0.0089684073
-0.065692283 0.001868136 0.0085023278
-0.064091317 0.0039765122 0.0076537905
-0.062746041 0.0059641115 0.0075275647
-0.061987728 0.0076257759 0.0074851764
-0.057590358 0.012780077 0.007390216
-0.020680111 0.055753618 0.0066028759
-0.018662689 0.057248849 0.006588527
-0.01696003 0.059212107 0.0066640666
-0.015304346 0.060944751 0.0073580788
-0.013764493 0.063210681 0.0078609819
-0.012054123 0.064750746 0.0082245627
-0.010275427 0.066121355 0.008441112
-0.0087661929 0.067123935 0.0084343087
-0.06978789 -0.0070836982 0.0098423231
-0.068733335 -0.0053743501 0.0094700539
-0.066984855 -0.0033204928 0.0087650074
-0.065217607 -0.0014917533 0.0081511894
-0.063808233 0.00027522372 0.0076999487
-0.062098127 0.0022796551 0.0076630078
-0.060427461 0.0036582884 0.0076464452
-0.017007804 0.056580238 0.0066405451
-0.015245206 0.057921734 0.0066268649
-0.013479805 0.059378851 0.0066863038
-0.011701675 0.061124738 0.0069825724
-0.010347033 0.063138552 0.0075394372
-0.0086778784 0.06494642 0.0080542695
-0.0069657802 0.066679411 0.0084813628
-0.069537841 -0.010239678 0.0099529391
-0.0682225 -0.0087632574 0.009426401
-0.066848017 -0.0070011979 0.008807864
-0.065212347 -0.005051495 0.0081876637
-0.063269816 -0.0031510615 0.007824841
-0.061803993 -0.0014329874 0.0077931872
-0.060889859 0.00050801085 0.0077441838
-0.011562365 0.058615737 0.0066691851
-0.0097997747 0.059957221 0.006655504
-0.008249593 0.061689533 0.0068977801
-0.0067235646 0.0634984 0.0074043432
-0.0049738269 0.065461792 0.0081575662
-0.0037252787 0.066996649 0.0085284756
-0.069204472 -0.014447626 0.010100441
-0.068196505 -0.012218756 0.0096681854
-0.066345409 -0.010394682 0.0086807823
-0.064957015 -0.0086336369 0.008090361
-0.063474253 -0.0066365977 0.0079384195
-0.061551902 -0.0046152323 0.0079047251
-0.060471598 -0.0031650532 0.0080753248
-0.0063682352 0.060453288 0.0067000175
-0.004845839 0.061942767 0.0067771114
-0.0031638667 0.063698106 0.0075653261
-0.0016184564 0.065678306 0.0083435494
0.00024923438 0.066960789 0.0086005675
-0.068799846 -0.017326618 0.010204501
-0.067898713 -0.015908858 0.0098392908
-0.066326164 -0.013858844 0.0088810483
-0.06471999 -0.011806375 0.008090131
-0.063961677 -0.010144712 0.0080477279
-0.0030987184 0.060586989 0.0067538247
-0.0014908265 0.062230509 0.0070607262
0.0001515991 0.064098246 0.0077944519
0.0018400484 0.065715671 0.0083978819
0.0034066453 0.067212619 0.0086483937
-0.068668582 -0.02126574 0.0098945787
-0.067285128 -0.01931408 0.0096615413
-0.066032872 -0.017560543 0.0090107843
-0.0645229 -0.015531309 0.0082856035
-0.064063273 -0.013355219 0.0081539135
-0.001236301 0.059706181 0.0068166414
0.00054940133 0.060755976 0.0068131546
0.0021952216 0.062462892 0.0072854701
0.0038146905 0.064245358 0.0078173252
0.005452645 0.06625998 0.0085024741
0.0070763733 0.067681752 0.0086980537
-0.067408621 -0.022637831 0.0094072195
-0.065567009 -0.020957738 0.008605225
-0.064131677 -0.019231703 0.0083503863
-0.063373365 -0.017570036 0.0083079832
0.0024780019 0.060002442 0.0068729231
0.0042616688 0.061078694 0.0068685422
0.0059143621 0.062790334 0.0072573824
0.0074462513 0.064905912 0.008047496
0.0089887418 0.066542022 0.0085560381
0.010801676 0.067449547 0.0087723034
-0.065345362 -0.024132056 0.0084935781
-0.063879587 -0.022413943 0.0084619243
-0.063121274 -0.020752279 0.0084195212
0.0075136679 0.061433379 0.0069145914
0.0090630706 0.062979966 0.0074739363
0.010768713 0.064961441 0.0081276083
0.012428597 0.06657616 0.0087306025
0.013986869 0.0673507 0.0088324267
-0.065715618 -0.029519597 0.010669642
-0.064570501 -0.0286227 0.0098259579
-0.063561551 -0.026128301 0.0087801553
-0.062391959 -0.024341254 0.0085532861
0.0090897558 0.060796615 0.0069641136
0.010889643 0.061443273 0.007057853
0.012628079 0.062991709 0.0075538242
0.014330908 0.064989127 0.0082300007
0.01543011 0.066513032 0.0088863336
-0.064562738 -0.030939151 0.010594987
-0.063180342 -0.029837653 0.0096136145
-0.061785035 -0.027957805 0.0086857462
0.012874098 0.060208894 0.0070513403
0.014623667 0.061474409 0.0071233688
0.016405832 0.06344346 0.0079228869
0.017844776 0.065405406 0.0088237133
-0.06354478 -0.034639638 0.010880587
-0.062805958 -0.032993317 0.0107272
-0.06149466 -0.031296927 0.0094703911
-0.060924497 -0.029383633 0.008749051
0.016660253 0.06056172 0.007107025
0.018240914 0.062205277 0.007413472
0.019953078 0.064071849 0.0084653478
0.021299388 0.065287337 0.0090322224
-0.062258549 -0.036186107 0.01084436
-0.060900122 -0.034704037 0.010095969
-0.059550218 -0.033009458 0.0090622958
0.018236332 0.059924949 0.0071565313
0.020033048 0.060571913 0.0072501842
0.021797607 0.062246785 0.0081426697
0.023224713 0.063964508 0.0089859851
-0.061440822 -0.040029671 0.011099414
-0.060825996 -0.038242649 0.010716696
-0.058970522 -0.036421217 0.0095765861
-0.057809204 -0.035006169 0.0089937542
0.02232101 0.058916401 0.0072633168
0.023667986 0.060447291 0.0077361688
0.025155814 0.062538765 0.0088598868
0.026728399 0.063603073 0.0091856942
-0.060101278 -0.041563738 0.011174909
-0.058888875 -0.039851431 0.010388392
-0.057301231 -0.037898153 0.0092112711
-0.05662192 -0.036512658 0.009065588
0.024283206 0.057738591 0.007337898
0.025341572 0.059069235 0.0074939653
0.02702474 0.06086278 0.0083658351
0.028646713 0.06244297 0.0091477195
-0.058515988 -0.043301497 0.011150441
-0.056956008 -0.041582435 0.0098556401
-0.055706505 -0.039642036 0.0091871973
0.027150512 0.057492871 0.0073973155
0.028862011 0.059018653 0.0078142965
0.030434638 0.060910285 0.0088086762
0.031589516 0.062402841 0.0093127582
-0.056931488 -0.04681582 0.011408092
-0.056806762 -0.045088787 0.011079292
-0.054991134 -0.043307684 0.0095734233
-0.054365534 -0.041403141 0.0092703355
0.029184854 0.056528337 0.0074660284
0.030978961 0.05747205 0.0074662659
0.032628492 0.059533887 0.0084270611
0.033981021 0.061182033 0.0093964757
-0.055795684 -0.047783867 0.011460922
-0.054875612 -0.046687275 0.010884452
-0.053391751 -0.044802532 0.0096749598
0.032786198 0.056228492 0.0075403312
0.034440167 0.058025938 0.0082599381
0.03609997 0.059937712 0.0092259319
-0.053780217 -0.049828619 0.011565636
-0.052892692 -0.048393812 0.010866049
-0.051536538 -0.046781674 0.0095016845
0.034945443 0.05458599 0.0076340726
0.036438193 0.056323025 0.008352817
0.038089689 0.058241874 0.0093184747
0.039227661 0.059571452 0.0095442096
-0.052062597 -0.051456034 0.011651005
-0.050932355 -0.050131526 0.010514708
-0.049664993 -0.048500419 0.0095929028
0.036949649 0.052877828 0.0077273101
0.03843623 0.054620128 0.0084457248
0.04010497 0.056575585 0.0093270587
0.041215342 0.057877365 0.0096366415
-0.050381973 -0.052940652 0.011397355
-0.049242396 -0.051620465 0.010261348
-0.048222091 -0.050200038 0.0096757933
0.038725387 0.051646978 0.0078003788
0.040174283 0.053188741 0.0084414901
0.041862734 0.05518008 0.0092385747
0.043182164 0.056446284 0.0097198533
-0.048313331 -0.054994114 0.011392123
-0.047275964 -0.053380337 0.0097996248
-0.046871431 -0.051746856 0.0097519141
0.040828306 0.050137274 0.0078886533
0.042244513 0.051561914 0.008303781
0.043895055 0.053525444 0.0092053767
0.045148987 0.055015206 0.0098030642
-0.046671093 -0.056753524 0.011825292
-0.045248926 -0.055040598 0.010336425
0.042591996 0.049058005 0.0079564024
0.044208817 0.049907465 0.0081386138
0.04591056 0.051754411 0.00907957
0.047321625 0.053373694 0.0098970225
-0.045176089 -0.058345508 0.011755387
-0.043538906 -0.056514546 0.01030531
-0.042576604 -0.055407312 0.009951611
0.045917559 0.048484508 0.0080350125
0.047477674 0.050209664 0.0090055317
0.049082689 0.052153014 0.0099694869
-0.043186322 -0.060041375 0.011847914
-0.041532088 -0.058200192 0.010564554
-0.040218633 -0.057087298 0.010050202
0.047821969 0.047073331 0.008116439
0.049443118 0.048573002 0.0092009446
0.050859846 0.050442148 0.010058736
-0.041196603 -0.061737206 0.011940443
-0.039527267 -0.059884135 0.01082375
-0.038323831 -0.058537371 0.01013277
0.050434619 0.045115046 0.010230336
0.05136203 0.046776999 0.010190978
0.052815735 0.048480883 0.010159585
-0.039396778 -0.062937729 0.012263102
-0.037814081 -0.061344273 0.010903408
-0.036605924 -0.060001537 0.010212654
0.051286444 0.044389032 0.010269955
0.053215597 0.045453459 0.0098515889
0.054704431 0.047081355 0.010240332
-0.037255406 -0.064566612 0.012356081
-0.035815369 -0.063047752 0.010996352
-0.034601726 -0.061709709 0.010305863
0.053834654 0.041948751 0.0083960351
0.055019677 0.043543532 0.0091876592
0.056711882 0.045424968 0.010065002
0.058570374 0.046028599 0.010344695
-0.035267729 -0.066260703 0.0124485
-0.033816617 -0.064735241 0.011199971
-0.032342657 -0.063264169 0.010398434
0.055972043 0.040252209 0.0086341649
0.057012387 0.041838825 0.0092751682
0.058597576 0.04376081 0.0096208705
0.059819166 0.045119565 0.0098971603
-0.033506028 -0.067549668 0.012094402
-0.032103471 -0.066211388 0.011168971
-0.030635241 -0.064595759 0.010473669
0.057383433 0.038674951 0.0092062829
0.058884725 0.040490761 0.0095358538
0.060344491 0.042201735 0.009504322
0.061765496 0.044013444 0.0096688922
-0.032177258 -0.068721719 0.010584953
-0.030628975 -0.067370653 0.010567102
-0.029203659 -0.065815888 0.010540243
0.058607414 0.037279479 0.0096389158
0.060310412 0.039275672 0.0096021462
0.06161581 0.040921178 0.0095700826
0.062458165 0.042370334 0.009536352
-0.013351449 -0.075174883 0.011938275
-0.011793331 -0.07368198 0.011560041
-0.010260005 -0.072399899 0.011099531
-0.011761474 -0.076361835 0.013064523
-0.010152809 -0.074996449 0.012411858
-0.0083258068 -0.073224135 0.011161719
-0.0065316977 -0.072280422 0.011161986
-0.0095724091 -0.078105919 0.013305175
-0.0080916844 -0.07661406 0.012881112
-0.0063634873 -0.074860841 0.011627019
-0.0049555679 -0.072917223 0.011211523
0.068806894 0.012974099 0.010971957
0.069746897 0.014704581 0.011097337
0.071371496 0.016210362 0.011325809
0.073007435 0.017538223 0.011560502
-0.0073984591 -0.079811633 0.01340131
-0.0062397439 -0.078260221 0.013258598
-0.0044664526 -0.076395556 0.012588141
-0.0029568665 -0.074297905 0.011793966
-0.0013962525 -0.073071733 0.011280195
0.070181377 0.010880876 0.010333033
0.07171604 0.012665787 0.010600561
0.073193729 0.014714838 0.011158451
0.074449912 0.016519016 0.011620508
-0.0042645079 -0.079932198 0.013461257
-0.0025605934 -0.07795655 0.01336264
-0.00090890029 -0.076064222 0.012754138
0.00051481801 -0.074298568 0.011800277
0.0018636488 -0.073105305 0.011339442
0.070799857 0.007541948 0.0098559437
0.072022796 0.0092813428 0.0099193109
0.073425464 0.011231354 0.010695986
0.075071879 0.01308206 0.011480358
0.075867802 0.014855118 0.01170176
-0.0026024631 -0.080858275 0.01352205
-0.00088985602 -0.079080768 0.013492784
0.0010639935 -0.07751637 0.013374957
0.0023954299 -0.075848281 0.012692089
0.0040457197 -0.074125618 0.011720567
0.0057986029 -0.072898194 0.011402636
0.071051948 0.0043597012 0.0099674975
0.072331831 0.0060517904 0.010033462
0.073854953 0.0078126909 0.010568454
0.075459093 0.0097554103 0.01133231
0.076786779 0.011276134 0.011838538
0.0027632359 -0.07840126 0.013535081
0.0042897766 -0.077420399 0.013418096
0.0060613677 -0.075407803 0.01234953
0.0077369763 -0.073647209 0.011553395
0.0095269587 -0.072778754 0.011465092
0.071876705 0.0006893801 0.010105653
0.07270246 0.002623271 0.010055308
0.074152619 0.0044375551 0.010620576
0.07597097 0.0064501455 0.011485993
0.077441141 0.0083641382 0.011948171
0.0059206425 -0.078149438 0.01358291
0.0079820296 -0.077038422 0.013382155
0.0096106883 -0.07521759 0.012549368
0.011168389 -0.073514983 0.011630339
0.01271069 -0.072524838 0.011513324
0.071544819 -0.0029842763 0.010223316
0.072996594 -0.0010893706 0.010185429
0.07440839 0.0008314522 0.010813161
0.076057367 0.0025953611 0.011517092
0.077541932 0.0047047567 0.012073056
0.07901331 0.0069015729 0.012025391
0.079896905 0.0085599786 0.01198537
0.0093003092 -0.080702931 0.013729072
0.010195342 -0.078631885 0.013675365
0.011527569 -0.076635972 0.013359048
0.013001033 -0.075053677 0.012604321
0.014659542 -0.073294386 0.011804917
0.016410997 -0.072051793 0.011563418
0.072599865 -0.0061914404 0.010349995
0.073171891 -0.004551393 0.010405102
0.074722663 -0.002758018 0.01087281
0.076385736 -0.0007640798 0.011502531
0.077859543 0.00099602004 0.012103387
0.078709736 0.0023781366 0.012172149
0.011861979 -0.079616375 0.013738212
0.013343466 -0.078263164 0.0137191
0.014863759 -0.076623768 0.013357489
0.016650902 -0.074578226 0.012438965
0.018295256 -0.072668716 0.011784558
0.020111308 -0.071578741 0.01161351
0.07280466 -0.010124708 0.01048595
0.07362473 -0.0080067432 0.010520305
0.074990883 -0.0061436831 0.010991477
0.076854095 -0.0041987011 0.011723434
0.078166738 -0.0022098946 0.012216727
0.079728305 -0.00045187739 0.012285496
0.081532769 0.0012800207 0.01225943
0.018560778 -0.076337494 0.013372093
0.020236313 -0.074415326 0.012893836
0.021699604 -0.072608925 0.012121216
0.02354284 -0.071082674 0.011658008
0.025305433 -0.069741189 0.011644297
0.072568178 -0.01387966 0.010608049
0.073762499 -0.011709183 0.010723091
0.075307697 -0.0097572263 0.011518949
0.07683184 -0.0079626497 0.012019503
0.078461058 -0.0058461055 0.01244435
0.080262281 -0.0038498526 0.012409323
0.081387438 -0.0020839353 0.012369982
0.082075499 3.8373256e-09 0.012312164
0.022122109 -0.075836837 0.013693969
0.023490427 -0.074148647 0.01309451
0.025333121 -0.0722588 0.012480012
0.027141573 -0.070331179 0.012030461
0.028650997 -0.068833902 0.011673438
0.02995494 -0.067769162 0.011660875
0.071464844 -0.018824609 0.010754718
0.072629228 -0.016924618 0.010822757
0.074115559 -0.015264409 0.011282655
0.075655758 -0.013135666 0.01177225
0.077051945 -0.011157907 0.012289985
0.078858018 -0.0095196944 0.012575009
0.080453686 -0.0079367971 0.012550212
0.027059572 -0.073762037 0.013645499
0.028856533 -0.071841136 0.013223748
0.030233234 -0.070021503 0.012408736
0.032055479 -0.068192549 0.011979441
0.034209654 -0.066591099 0.011697142
0.036154311 -0.06513983 0.011682964
0.070335202 -0.024785725 0.01093509
0.071382046 -0.022834182 0.010888123
0.07256262 -0.020605188 0.011084332
0.074092284 -0.018742276 0.0115266
0.075888582 -0.016887881 0.011852582
0.077450074 -0.014658569 0.012639373
0.079108067 -0.012675666 0.012685624
0.080277801 -0.010729761 0.012641034
0.030701393 -0.073438168 0.01386634
0.032177668 -0.071748525 0.013752443
0.034024946 -0.069850251 0.013179475
0.035611507 -0.067709818 0.012538089
0.037201669 -0.066064723 0.012066334
0.039026484 -0.064323641 0.011706754
0.041027088 -0.062616251 0.011685
0.042269599 -0.061449695 0.011667903
0.068653911 -0.03052396 0.011098112
0.070063695 -0.028098691 0.011041702
0.071404561 -0.026029943 0.01121839
0.072880886 -0.024039067 0.011705934
0.074474797 -0.022048684 0.01191757
0.07623934 -0.020232532 0.012272849
0.077633828 -0.018370016 0.012696915
0.078905344 -0.016132416 0.01279829
0.037347812 -0.069264837 0.013510906
0.038928825 -0.067624733 0.013066961
0.04074527 -0.065687351 0.012658925
0.042565893 -0.063743144 0.012250685
0.044082366 -0.062051099 0.012054027
0.045599371 -0.06046192 0.011967008
0.04736568 -0.058374591 0.011655352
0.049096815 -0.056635357 0.01162771
0.050827898 -0.054896086 0.011600067
0.052538007 -0.052891657 0.01156314
0.054248121 -0.05088722 0.0115262
0.055713896 -0.049169108 0.011494546
0.061088461 -0.042869408 0.011378492
0.062309999 -0.041437693 0.011352113
0.06402006 -0.039433219 0.01131517
0.065199554 -0.037471104 0.011270237
0.067014202 -0.035292417 0.011329363
0.068513647 -0.033457268 0.011444478
0.070080072 -0.031557977 0.011758755
0.0715295 -0.029484633 0.011961226
0.073068246 -0.027712051 0.012390918
0.07466881 -0.025643012 0.012242102
0.07647074 -0.023749806 0.012010396
0.042492975 -0.067264296 0.013535368
0.044297963 -0.065323807 0.013168695
0.045887575 -0.063540578 0.013203795
0.04758339 -0.0615451 0.012766614
0.048949707 -0.059497308 0.012414199
0.050561424 -0.057754986 0.012358638
0.052277144 -0.055958811 0.012233485
0.053836647 -0.053875268 0.012048266
0.055556405 -0.05207504 0.011923096
0.057170406 -0.05033021 0.011867511
0.058770161 -0.048262678 0.011718689
0.060467891 -0.046362065 0.011735096
0.062050197 -0.044610508 0.011762082
0.06357152 -0.042529508 0.01181163
0.065246589 -0.040629122 0.011877685
0.066837355 -0.038723651 0.012142154
0.068432391 -0.036764473 0.012054655
0.070219114 -0.035074104 0.012580042
0.071673244 -0.033020109 0.012782524
0.073157661 -0.031147076 0.013200848
0.054160014 -0.057299908 0.01274109
0.055848531 -0.0554257 0.012708147
0.05730829 -0.053714726 0.012676631
0.059011288 -0.051718529 0.012639862
0.060714331 -0.049722373 0.012603062
0.062174086 -0.0480114 0.012571546
0.063877128 -0.046015248 0.012534778
0.065681003 -0.044121254 0.012867133
0.06724117 -0.042328104 0.01327132
0.068802804 -0.040266473 0.013199019
-0.054221369 0.025557637 0.0060197553
-0.05309546 0.027547581 0.0059728902
-0.051661965 0.029756924 0.0059241327
-0.050313126 0.03149667 0.0058896728
-0.048595991 0.033509422 0.0058525885
-0.046878807 0.035522141 0.0058155051
-0.045406971 0.037247352 0.0057837134
-0.043647576 0.038727477 0.0057653189
-0.041930445 0.040740225 0.0057282206
-0.03992575 0.042507894 0.0057045026
-0.0381664 0.043988056 0.0056860913
-0.036449272 0.046000812 0.0056490069
-0.034732092 0.048013523 0.0056119235
-0.033505559 0.049451187 0.0055854414
-0.05476303 0.023370715 0.0060836477
-0.05314875 0.024265077 0.0060823532
-0.051608793 0.026009627 0.0060511297
-0.049846373 0.028009398 0.005514916
-0.04834811 0.029970694 0.0051977122
-0.046884757 0.03175731 0.004941334
-0.045156512 0.033756286 0.0049883192
-0.04341713 0.03567962 0.005315965
-0.041933708 0.037348036 0.005508692
-0.040332086 0.039312363 0.0055318363
-0.038533349 0.041175768 0.005574001
-0.037016395 0.043007907 0.0057395846
-0.035299256 0.045020666 0.0057024844
-0.033582076 0.047033381 0.005665415
-0.032110248 0.048758581 0.0056336252
-0.03040771 0.050648335 0.005600404
-0.028619625 0.052073926 0.0055843405
-0.06071914 0.010569178 0.0064080628
-0.051311906 0.022808328 0.0054493118
-0.050078988 0.024506707 0.0051282775
-0.048354782 0.02652774 0.0050910516
-0.046630532 0.028548732 0.0050537949
-0.045152634 0.030281039 0.0050218822
-0.043428387 0.032302033 0.0049846703
-0.041704182 0.034323066 0.0049474137
-0.040226281 0.036055375 0.004915501
-0.038748346 0.037787642 0.0048835883
-0.037024144 0.039808672 0.0048463615
-0.035295546 0.04169897 0.0052583246
-0.033693414 0.043597564 0.0055060759
-0.031894896 0.045521274 0.0053460579
-0.030380521 0.047392875 0.0053768
-0.028668031 0.049301062 0.0056767492
-0.026950892 0.051313818 0.0056396807
-0.025191549 0.052793972 0.0056212554
-0.023677496 0.053986594 0.0056081396
-0.061802421 0.0061952928 0.0065358644
-0.060907755 0.0078744339 0.0064953379
-0.059569132 0.0095890332 0.0064615542
-0.058651194 0.011538019 0.0064123403
-0.051166743 0.020114843 0.0052565727
-0.049835403 0.02143186 0.0052360501
-0.048346922 0.023030467 0.0052088248
-0.04683667 0.025034407 0.0051683458
-0.045187112 0.027318507 0.0051209051
-0.043709215 0.029050818 0.0050889924
-0.035003327 0.038086347 0.0049403301
-0.033279125 0.040107384 0.0049031032
-0.031801187 0.041839648 0.0048711766
-0.030076982 0.043860678 0.0048339488
-0.028352726 0.045881677 0.004796708
-0.026869562 0.047710009 0.0049155895
-0.025058776 0.04949088 0.0052010072
-0.023683928 0.051445965 0.0055934126
-0.022036847 0.053581499 0.0056510139
-0.020072814 0.055185176 0.0056321099
-0.060654599 0.0046790214 0.0066073369
-0.059449147 0.0063829659 0.0065715173
-0.05855453 0.008062141 0.0065309908
-0.024854019 0.045891661 0.0048587499
-0.023129819 0.047912691 0.004821538
-0.02157888 0.050105054 0.0049573677
-0.0200141 0.051928021 0.0055550672
-0.018307164 0.053878959 0.0057075191
-0.016711878 0.055399634 0.005684833
-0.014829088 0.056675255 0.0056754984
-0.013519713 0.057744369 0.0056628613
-0.019673454 0.048457414 0.0048648287
-0.018195558 0.050189719 0.004832915
-0.016615858 0.052053861 0.0051622596
-0.01484063 0.053826429 0.0054708915
-0.013350944 0.055614095 0.0057375422
-0.0116484 0.057503853 0.005704321
-0.0096080313 0.05912824 0.0056860764
-0.062320516 -0.0064404882 0.0069516795
-0.014696852 0.050199699 0.0048949877
-0.012972603 0.052220695 0.004857746
-0.011270562 0.054155026 0.0050731907
-0.0098694311 0.056041371 0.0057082577
-0.0081915911 0.05816932 0.0057435986
-0.0066916258 0.059539493 0.005724241
-0.063454807 -0.01242625 0.0071328022
-0.062758118 -0.010316278 0.0070742648
-0.061373588 -0.0082407668 0.0070291106
-0.059915796 -0.0063380487 0.0069911247
-0.010951793 0.050498366 0.0049517155
-0.0092275944 0.052519392 0.0049144737
-0.0079107108 0.05460453 0.0052526984
-0.0062133903 0.056294128 0.0056275269
-0.0047072596 0.058179278 0.0058053816
-0.003203724 0.059505023 0.0057875952
-0.062956311 -0.015334156 0.0072394935
-0.062550098 -0.013693936 0.0071915882
-0.061078262 -0.011968727 0.0071597975
-0.059361085 -0.0099560134 0.0071226982
-0.057701964 -0.0081775896 0.0070924656
-0.055689152 -0.0066147093 0.0060750628
-0.0074954806 0.051043116 0.004995021
-0.0060175294 0.052775394 0.0049630934
-0.0043032421 0.05476718 0.0050100693
-0.0026807112 0.056502786 0.0057867235
-0.00099220977 0.058353789 0.0058657629
0.00082399434 0.059424326 0.0058621345
-0.062223677 -0.017062146 0.0073107118
-0.060671702 -0.015198967 0.0071756141
-0.059108768 -0.013657767 0.0068347622
-0.057428397 -0.01161228 0.0063998448
-0.056247629 -0.0092731081 0.0061545614
-0.055315737 -0.0079302778 0.0061259717
-0.0022725195 0.053074095 0.005019851
-0.00058142701 0.055007547 0.0052351309
0.00079020578 0.056891538 0.0058697397
0.0024751667 0.058886111 0.0059096934
0.0039927377 0.060034342 0.0058981329
-0.062365614 -0.022790119 0.0075008394
-0.061914265 -0.020967655 0.0074475948
-0.060549829 -0.018883964 0.0072141895
-0.058854092 -0.016961711 0.0066396175
-0.057285044 -0.015352244 0.0063405447
-0.056386724 -0.013666171 0.0062998151
-0.00025171178 0.051351767 0.0051138205
0.0014724963 0.053372804 0.0050765639
0.0027838526 0.05548358 0.0053368481
0.0043822862 0.057226676 0.0055376487
0.0059647071 0.058939174 0.0058161607
0.0074524689 0.060354959 0.0059490381
-0.061296839 -0.02409832 0.007563916
-0.060234364 -0.022620136 0.0075331433
-0.05861216 -0.020574074 0.0065759374
-0.057342026 -0.018370388 0.0064410456
-0.056489158 -0.016903212 0.0064068856
0.0031940129 0.052030221 0.0051524388
0.0046825036 0.053628836 0.0051251967
0.0061604446 0.0553611 0.0050932858
0.0078705642 0.057352029 0.0051402096
0.0096786618 0.059326641 0.0060233278
0.011480234 0.060274228 0.0060235774
-0.060674943 -0.027210725 0.0076796813
-0.059981212 -0.02581555 0.0076451423
-0.058531761 -0.024085196 0.0073903799
-0.057209086 -0.022162633 0.0065709855
0.0048520039 0.05148977 0.005200142
0.0064146225 0.052152559 0.0052057458
0.0078925639 0.05388483 0.0051738331
0.0096167605 0.055905856 0.0051366063
0.011433975 0.057915535 0.0059353113
0.013148968 0.059514124 0.0060789017
-0.059492566 -0.029566396 0.0077800127
-0.05796871 -0.027530801 0.007738716
-0.056567889 -0.025794132 0.0069547566
-0.055635601 -0.024279386 0.0066702375
0.008090266 0.051389281 0.0052612675
0.0098794149 0.052282099 0.0052631851
0.011637569 0.054183528 0.0052305907
0.013436935 0.056366041 0.0055227997
0.015139502 0.058035988 0.0060871355
0.016636875 0.059479661 0.0061422568
-0.057673339 -0.031258799 0.0078693889
-0.055986386 -0.029245766 0.0074981917
-0.054571819 -0.027513087 0.0067979982
-0.054163925 -0.025866125 0.0067498377
0.01184941 0.051509731 0.0053242547
0.013673063 0.052584697 0.0053206636
0.015382589 0.054482237 0.0052873027
0.017003251 0.056325853 0.0057545314
0.018617731 0.058163844 0.00622187
0.019865347 0.059335236 0.0062046945
-0.057174884 -0.034166671 0.0079760794
-0.055970732 -0.032732077 0.0076991199
-0.054317642 -0.030721635 0.0069104582
-0.053553052 -0.029046249 0.0068677049
0.015608549 0.051630169 0.0053872578
0.017114701 0.05300596 0.0053678509
0.018612003 0.054867785 0.0054320022
0.020256182 0.056503322 0.0061249677
0.021569295 0.058131263 0.0062755812
-0.055490136 -0.036111623 0.007946454
-0.054005653 -0.034352124 0.0073049981
-0.052796617 -0.032445405 0.0069955625
0.019057957 0.051777147 0.0054438412
0.020613408 0.053015947 0.0054299217
0.022029685 0.054885257 0.0058926232
0.023539595 0.056948613 0.0063505108
-0.054600585 -0.03958869 0.0082043866
-0.053695515 -0.037754864 0.0078919875
-0.051887695 -0.035909247 0.0071282862
0.022692513 0.051528875 0.0055170031
0.024196573 0.053439278 0.0057654707
0.025797436 0.055520862 0.0064387918
0.027858336 0.056578469 0.0064399568
-0.053254105 -0.041357044 0.0082878806
-0.05171328 -0.039377917 0.007665026
-0.050268155 -0.037663553 0.0072161714
0.024281606 0.050886858 0.005566908
0.026105257 0.051961821 0.0055633159
0.027872566 0.053890187 0.0062804604
0.029537637 0.055685207 0.0064999508
-0.052068502 -0.044478126 0.0084140021
-0.051662285 -0.042837895 0.0083660819
-0.049995992 -0.040859494 0.0075787222
-0.048347987 -0.039086401 0.0072982917
0.028127259 0.050886083 0.0056355428
0.029706497 0.052558511 0.0059410054
0.031252105 0.054348119 0.0065755202
0.032520864 0.055253208 0.0065676821
-0.05063102 -0.045703277 0.008480845
-0.049649782 -0.044553149 0.0084596556
-0.047993127 -0.042594466 0.0074226307
-0.046268925 -0.040573433 0.0073854038
-0.044667047 -0.039046519 0.0073625892
-0.042735696 -0.037600961 0.0073483782
-0.042039115 -0.036200047 0.0073136697
0.030582435 0.049505912 0.0057257125
0.031556413 0.050780546 0.0057772277
0.033180036 0.052420206 0.0064745909
0.034245897 0.05378297 0.0066479063
-0.048597384 -0.047684837 0.0085837711
-0.047649711 -0.046283543 0.008331147
-0.045972317 -0.044316791 0.0075166002
-0.044381842 -0.042306446 0.0074773198
-0.043058868 -0.040317435 0.0074339937
-0.04182728 -0.038873855 0.0074073803
0.032603249 0.047783591 0.0058196979
0.033588529 0.048938446 0.0057984423
0.035101313 0.050711531 0.0065162824
0.036258399 0.052067719 0.0067414949
-0.047161769 -0.049369548 0.0086660469
-0.045940306 -0.047779977 0.0080783889
-0.044445734 -0.045917079 0.007597642
0.033757973 0.04679941 0.0058733858
0.035320643 0.047462177 0.0058789887
0.036876138 0.049293302 0.0064288648
0.038294636 0.050729532 0.0068228263
-0.045777783 -0.052819315 0.0088067679
-0.04537157 -0.051179096 0.0087588346
-0.043928329 -0.049508091 0.0080612348
-0.042712055 -0.048092801 0.0077017443
0.037341408 0.045739889 0.0059729731
0.038916487 0.047601543 0.006438789
0.040418863 0.049183931 0.006912699
-0.044340312 -0.054044474 0.0088736108
-0.043359078 -0.052894346 0.0088524371
-0.041910291 -0.051228061 0.0081550572
-0.040691245 -0.049815129 0.0077956989
0.03960852 0.044306271 0.0060615987
0.040984288 0.045934316 0.0063649481
0.042499043 0.047742061 0.006998294
0.043767795 0.048647143 0.006990456
-0.041634034 -0.054364584 0.0089326454
-0.040180538 -0.052702326 0.0082354918
-0.039123885 -0.051250707 0.007871937
0.041586991 0.043118693 0.0061368188
0.0425818 0.04440739 0.0062113069
0.0441554 0.046073738 0.0069019757
0.045516551 0.04755396 0.007058437
-0.039638419 -0.0558668 0.0090187769
-0.038383503 -0.054325394 0.008388848
-0.037205867 -0.053035028 0.0079661543
0.044304337 0.042797305 0.0061961105
0.045997825 0.044644371 0.0067030247
0.047640733 0.046008401 0.0071483087
0.04979749 0.046984315 0.0071539152
-0.037363682 -0.057507578 0.009114515
-0.036310501 -0.055917587 0.0083520385
-0.035365138 -0.054425787 0.0080457889
0.046325143 0.041074984 0.006290094
0.04805788 0.04298903 0.0062566148
0.049873218 0.044700887 0.0067873029
0.050768044 0.046059694 0.0069521395
-0.03563869 -0.058977779 0.0091947233
-0.034414746 -0.057616487 0.0085036159
-0.03343175 -0.056501016 0.0081500467
0.048345953 0.039352655 0.0063840495
0.050041281 0.041349374 0.0064305197
0.051561344 0.043196399 0.0069792271
0.052808486 0.04443945 0.0070930729
-0.033913657 -0.060448021 0.0092749475
-0.032684989 -0.059090748 0.0085840803
-0.031387117 -0.057844725 0.0082317172
0.050258175 0.038321264 0.0064528296
0.051714417 0.039825499 0.0066783903
0.052925698 0.041338526 0.0073996158
-0.032011047 -0.061904065 0.0093578557
-0.030669872 -0.060778242 0.0089269513
-0.029169252 -0.059336081 0.0083214445
0.051725466 0.037469625 0.0065076267
0.053742878 0.038225729 0.0067183468
0.054938197 0.039623268 0.0074932044
-0.029643303 -0.063591011 0.0094568171
-0.028660025 -0.062455501 0.009324952
-0.027165398 -0.060844496 0.0084079197
0.055842329 0.037152201 0.0065917391
0.057047222 0.038252853 0.0065761888
-0.028815169 -0.067276478 0.0095955618
-0.027982663 -0.065602303 0.0095540965
-0.026933717 -0.063926816 0.009405233
-0.02543663 -0.062305506 0.0085990885
0.058399703 0.034773104 0.0067173569
-0.026302822 -0.067215919 0.0087488107
-0.024890414 -0.065775365 0.008614379
-0.023412518 -0.06404306 0.0085824514
0.05843991 0.031547453 0.0068265945
0.059350461 0.032965466 0.006795154
-0.023854887 -0.068652555 0.0087295743
-0.022869607 -0.0674977 0.0087083327
-0.02139171 -0.065765381 0.008676406
0.060793936 0.031735212 0.0068622343
-0.021148087 -0.068840273 0.0087841935
-0.019427963 -0.067076422 0.0087555507
-0.017604314 -0.06600146 0.0087518692
-0.019225271 -0.070005365 0.0088576619
-0.017681167 -0.068429202 0.0088322014
-0.015928665 -0.066764735 0.0088074366
-0.017469337 -0.071103022 0.0089258812
-0.015782276 -0.070125826 0.0091232667
-0.013957532 -0.068250723 0.0090465331
-0.012349621 -0.06708917 0.0088821752
-0.013965108 -0.071987383 0.010018849
-0.012233287 -0.070001692 0.0098161353
-0.010437405 -0.068120562 0.008950986
-0.0091634784 -0.067211717 0.008943093
-0.012815097 -0.072967529 0.010072311
-0.010277643 -0.071157336 0.010056695
-0.0084761241 -0.069745019 0.0096243368
-0.0072167981 -0.067998223 0.009004293
-0.0065163048 -0.071259297 0.010127175
-0.0052449559 -0.069530867 0.0094245793
-0.0036968994 -0.068255626 0.0090757255
-0.0045776218 -0.072042562 0.0101881
-0.0033089162 -0.071137451 0.010180292
-0.0014880464 -0.069396257 0.0092444653
-0.0013596658 -0.072053872 0.01024587
0.00020233786 -0.070678361 0.0097270943
0.0018146473 -0.069188274 0.00920536
0.0022213412 -0.071882203 0.01021297
0.0038500412 -0.070404164 0.0095554953
0.005261275 -0.069200397 0.009267224
0.0043192226 -0.072672792 0.010367952
0.0058104033 -0.071740359 0.010251988
0.0071837786 -0.070166916 0.0095842276
0.0090204589 -0.069079988 0.009330227
0.0075160898 -0.072417825 0.010416385
0.0090617938 -0.071624629 0.010417259
0.010925531 -0.06986849 0.0096409163
0.01272309 -0.068246506 0.0093682194
0.010712962 -0.072162852 0.010464818
0.012793841 -0.071186349 0.010392086
0.014632852 -0.069542535 0.0098628337
0.0159331 -0.067990474 0.0094168382
0.06993334 -0.0054747183 0.0082768817
0.071557455 -0.0043377425 0.0092683332
0.01497546 -0.071822889 0.010529395
0.016521158 -0.071029693 0.010530269
0.017820219 -0.069273226 0.0099940076
0.019692291 -0.067870066 0.0094798421
0.021747569 -0.066629864 0.0094747432
0.06411434 -0.016970735 0.0085598249
0.065838553 -0.014949702 0.0085225832
0.067430332 -0.01261636 0.0084724957
0.06839709 -0.010548142 0.0084201768
0.069792107 -0.0084585771 0.008624942
0.071299948 -0.0064861965 0.0090858229
0.072174646 -0.0053603882 0.0093137389
0.019700423 -0.070552804 0.010570921
0.021539459 -0.068961635 0.010133223
0.023394918 -0.067036584 0.0095178327
0.025120731 -0.065715037 0.0095041469
0.026435476 -0.064641528 0.0094914651
0.064304993 -0.019377153 0.0086441739
0.065269075 -0.01795491 0.0086135427
0.066993281 -0.015933871 0.0085763307
0.068670616 -0.013919981 0.0086496547
0.070157416 -0.011939839 0.0091655087
0.071600862 -0.0099615855 0.0094582699
0.072495475 -0.0082824128 0.0094177434
0.023139117 -0.069965944 0.010612505
0.025163315 -0.068492733 0.010508073
0.026749026 -0.066935591 0.010157985
0.028201666 -0.0652522 0.0097254701
0.03002781 -0.063547812 0.0095187379
0.065879941 -0.021135032 0.0087313931
0.067173235 -0.019418271 0.0087968009
0.068864621 -0.017565129 0.0089981332
0.070347279 -0.015686899 0.0095451018
0.071585782 -0.013616856 0.0095809633
0.07239344 -0.011506164 0.0095243705
