# .PCD v0.7 - Point Cloud Data file format
VERSION 0.7
FIELDS x y z
SIZE 4 4 4
TYPE F F F
COUNT 1 1 1
WIDTH 1273
HEIGHT 1
VIEWPOINT 0 0 0 1 0 0 0
POINTS 1273
DATA ascii
-0.068063036 0.015714522 0.01278093
-0.027762229 -0.062707864 0.011289011
-0.026051998 -0.064535879 0.011389007
-0.025034465 -0.066654377 0.012093375
-0.024062147 -0.068569615 0.012199562
-0.070052505 0.027283337 0.014122911
-0.069840744 0.025578737 0.014070202
-0.068592645 0.023689544 0.013769722
-0.067296296 0.021648752 0.013110545
-0.067109548 0.019673176 0.01294752
-0.024291698 -0.064163081 0.011344505
-0.022788469 -0.066022448 0.011526074
-0.021747096 -0.068032779 0.012015941
-0.020373231 -0.070116356 0.012258529
-0.068995237 0.030841339 0.013945093
-0.068582185 0.028742701 0.013884809
-0.067376517 0.026534596 0.013678124
-0.066466048 0.024736002 0.01334318
-0.065955065 0.023238242 0.013106568
-0.019692784 -0.067205973 0.01162959
-0.018513707 -0.069082633 0.012078254
-0.017292917 -0.071116529 0.012317923
-0.068028405 0.034417879 0.013431424
-0.067614876 0.032313664 0.013370985
-0.066408761 0.02995206 0.013325843
-0.065484896 0.027588317 0.013271985
-0.065185435 0.025614925 0.013212598
-0.016648943 -0.068233721 0.011579627
-0.015143498 -0.069857337 0.012051886
-0.013927965 -0.071642004 0.012402455
-0.012470438 -0.073205844 0.012392684
-0.066460378 0.035878718 0.013530032
-0.065254271 0.033517122 0.01348489
-0.064275429 0.031323139 0.013438597
-0.013116594 -0.069214314 0.011510472
-0.011729392 -0.070950657 0.012159919
-0.010453667 -0.073042765 0.01245995
-0.0092996648 -0.075544029 0.012408363
-0.0078421412 -0.077107854 0.012398561
-0.06490384 0.038656577 0.013674052
-0.064099781 0.037082184 0.013643936
-0.063042261 0.034768846 0.013595931
-0.062876441 0.032745041 0.013530722
-0.0094190938 -0.070258528 0.011587163
-0.0081710247 -0.072106063 0.012228541
-0.0069473423 -0.074344791 0.012521863
-0.0057454845 -0.076698072 0.012476841
-0.0041600913 -0.077867165 0.012484681
-0.062936693 0.039659459 0.013768962
-0.062526017 0.037884504 0.013719883
-0.061721943 0.036310099 0.013689768
-0.0070523019 -0.069760598 0.011676751
-0.005848235 -0.071095951 0.011778397
-0.0048837624 -0.073197164 0.012481731
-0.0037852302 -0.075698711 0.012571429
-0.0027197208 -0.077462412 0.012542747
-0.0034103226 -0.070483498 0.011762921
-0.0025159018 -0.072351076 0.012180422
-0.0018249797 -0.07469935 0.012666017
-0.00023959401 -0.07586845 0.012673857
-0.059464376 0.045100931 0.014314245
-0.058425028 0.043447793 0.014038337
-0.00032083914 -0.071289644 0.011829304
0.00052357087 -0.073538721 0.012666835
0.0018570659 -0.075458661 0.012752136
-0.058433913 0.04968442 0.015255652
-0.058420163 0.048109554 0.015201407
-0.057722367 0.04617751 0.014710697
-0.056851324 0.044250078 0.014114253
0.0017511452 -0.070977442 0.011903431
0.0027144183 -0.072468728 0.012256497
0.0040775342 -0.074492179 0.012753408
0.0055391118 -0.076217972 0.012838225
0.0068688351 -0.078176521 0.012810844
-0.057236858 0.051265039 0.014846593
-0.056221791 0.049134221 0.014428193
-0.055459488 0.047128379 0.014399715
-0.05508513 0.045646582 0.014216708
0.0045545083 -0.071449906 0.011972681
0.0062242141 -0.073265575 0.012377757
0.007435455 -0.075415961 0.012924008
0.0084370142 -0.077377044 0.01288652
0.0095344922 -0.079042032 0.012862225
-0.055949468 0.054135405 0.014485063
-0.055145387 0.052560996 0.014454948
-0.054087881 0.050247669 0.014406913
-0.05392205 0.048223864 0.014341732
0.0084617157 -0.072368301 0.012060124
0.00958574 -0.073980272 0.012594643
0.010789337 -0.076177798 0.01300002
0.011790927 -0.078138836 0.012962532
-0.053982247 0.055138294 0.014579973
-0.053178173 0.0535639 0.014549859
-0.052566539 0.051395323 0.014493236
0.010747075 -0.07160008 0.012156622
0.011943528 -0.072895654 0.01237064
0.012749649 -0.075178429 0.013094609
0.013951506 -0.07753171 0.013049616
0.014257144 -0.071918957 0.012252772
0.01470989 -0.074179053 0.013189197
0.015911752 -0.076532349 0.013144175
0.01647344 -0.071161121 0.012346802
0.017067304 -0.073056802 0.013077732
0.018264083 -0.075333111 0.013257675
0.018344454 -0.07045529 0.012428446
0.019431684 -0.071971543 0.012853924
0.020616403 -0.07413388 0.013371175
0.020215424 -0.069749497 0.012510117
0.021806406 -0.07092274 0.012517961
0.022968736 -0.072934642 0.013484675
0.023970278 -0.074895695 0.013447187
0.024169464 -0.07000149 0.012622162
0.025344048 -0.071887843 0.013148664
0.026522914 -0.074088678 0.013553183
0.028108295 -0.075257771 0.013561022
0.026632451 -0.069206484 0.012724988
0.027720351 -0.070800796 0.012925325
0.028875232 -0.072889432 0.013666683
0.029993571 -0.074692123 0.013638254
0.028503414 -0.068500683 0.01280666
0.029700944 -0.069874495 0.01279554
0.030847466 -0.07194715 0.013592809
0.032037403 -0.074243337 0.01371628
0.031620089 -0.06902013 0.012883816
0.032673296 -0.070839562 0.012852822
0.033678398 -0.072807565 0.012815194
0.034779724 -0.07447844 0.012790805
0.034112658 -0.06822066 0.012987711
0.035033915 -0.069636106 0.012966727
0.036039006 -0.071604103 0.012929099
0.037044145 -0.073572069 0.012891471
0.03600461 -0.067652985 0.013065245
0.037277337 -0.068591587 0.013071531
0.038399659 -0.070400611 0.013043004
0.03910755 -0.072272085 0.01299962
0.039973419 -0.069598287 0.013118921
0.040777493 -0.071172684 0.013088806
0.048149537 -0.055508401 0.013857923
0.04932984 -0.054906677 0.013914875
0.054820031 -0.037083555 0.014701452
0.055515803 -0.039185613 0.014649728
-0.061827119 -0.026303826 0.010511357
-0.060616758 -0.02867374 0.010466035
-0.059406344 -0.031043623 0.010420742
-0.067325696 -0.0096917758 0.010920202
-0.066317007 -0.011666676 0.010882434
-0.0653418 -0.014355601 0.010818859
-0.06429106 -0.016607758 0.010772742
-0.063080698 -0.018977668 0.01072742
-0.062466841 -0.021153858 0.010670605
-0.061541516 -0.023185803 0.010294653
-0.060329739 -0.025558483 0.010249279
-0.059117958 -0.027931163 0.010203877
-0.057906125 -0.030303819 0.010158565
-0.056824237 -0.0326107 0.01019491
-0.055680305 -0.034446459 0.0099873701
-0.054599375 -0.036558226 0.01037607
-0.053340733 -0.038779065 0.01033739
-0.051783759 -0.041096728 0.010304471
-0.050476845 -0.0431685 0.010272495
-0.049169928 -0.045240279 0.010240487
-0.068482719 -0.0020674812 0.01114958
-0.067682192 -0.0045396495 0.011088176
-0.066844538 -0.0069497596 0.010696417
-0.065879218 -0.0089476341 0.010489698
-0.064912967 -0.010947367 0.010282936
-0.063410833 -0.013177974 0.0098342802
-0.062239036 -0.015581225 0.0096197473
-0.061023388 -0.017961539 0.0095742289
-0.060071569 -0.019985072 0.0092828209
-0.059057649 -0.021970406 0.0092448555
-0.057840854 -0.024352759 0.0091993231
-0.056624115 -0.026735142 0.0091537302
-0.055407375 -0.029117523 0.0091081969
-0.054393403 -0.031102825 0.0090702623
-0.053379428 -0.033088133 0.009032269
-0.052126557 -0.03543463 0.0091558937
-0.050892621 -0.037797328 0.0091949822
-0.049859893 -0.040114846 0.0095965397
-0.04879979 -0.042471163 0.010097679
-0.047593363 -0.044242889 0.010180242
-0.046581961 -0.046410043 0.010278906
-0.045203581 -0.048552062 0.010246621
-0.04366985 -0.050650436 0.010220652
-0.042564604 -0.052327193 0.0101962
-0.068236269 0.0037831785 0.011360266
-0.067902066 0.0013462995 0.011160711
-0.066956624 -0.0010166551 0.01067656
-0.065833598 -0.0034258403 0.010293533
-0.064735875 -0.005851998 0.0097979372
-0.063808985 -0.0078755729 0.0094222836
-0.06279441 -0.0098620281 0.0093842819
-0.061264195 -0.012088075 0.0090200799
-0.060045328 -0.014474615 0.0089744562
-0.058826413 -0.016861128 0.0089288037
-0.058208287 -0.019052604 0.0088715721
-0.057192571 -0.021041382 0.0088335527
-0.055973705 -0.023427926 0.0087879291
-0.054357193 -0.025611736 0.0087614879
-0.053138327 -0.027998274 0.0087158643
-0.052322857 -0.02992204 0.0086739557
-0.051504433 -0.03217851 0.0086205844
-0.050285567 -0.03456505 0.0085749608
-0.048766334 -0.037049115 0.0085351113
-0.047620948 -0.039300419 0.0088673364
-0.046632063 -0.041092202 0.0094609857
-0.04561989 -0.043074057 0.009423106
-0.044362094 -0.045396116 0.0096033597
-0.043065026 -0.047657404 0.01000936
-0.041792285 -0.049942147 0.010302571
-0.040581871 -0.052312031 0.010257249
-0.038978394 -0.054282401 0.010237846
-0.037774932 -0.055859301 0.010219865
-0.067867346 0.0069582253 0.011481775
-0.067007817 0.0048062047 0.011057876
-0.065914832 0.0025309431 0.010386653
-0.064846262 0.00010293073 0.0097788479
-0.063716173 -0.0023131366 0.0093958052
-0.062811814 -0.0047126953 0.0092289047
-0.062108636 -0.0068369461 0.0091765905
-0.061290272 -0.0090934429 0.009123248
-0.060274549 -0.011082222 0.0090851989
-0.045721501 -0.038922526 0.0085630808
-0.04448716 -0.040178593 0.0089575872
-0.043242656 -0.041862119 0.0095377909
-0.042027988 -0.044240315 0.0094923191
-0.040813375 -0.046618536 0.0094468454
-0.039539367 -0.048908845 0.0097399401
-0.038326114 -0.05128428 0.0096945176
-0.037192881 -0.053494826 0.010069455
-0.036305398 -0.05534872 0.010082261
-0.035283513 -0.057327207 0.010244997
-0.067515731 0.012115761 0.011671622
-0.066834316 0.0097349286 0.011484615
-0.066059597 0.007925489 0.010944918
-0.065003254 0.0061056972 0.010338394
-0.063797645 0.0036652638 0.0094897002
-0.063276693 0.0011735876 0.0094190622
-0.062561341 -0.00071766734 0.0093752388
-0.040143836 -0.043529533 0.0095745735
-0.038416922 -0.045378368 0.0096743274
-0.037221476 -0.047784794 0.0095160883
-0.036156539 -0.050114434 0.0094677163
-0.035013352 -0.051994178 0.0091513917
-0.034204599 -0.054293957 0.009564206
-0.033073708 -0.056537293 0.0099228229
-0.031919841 -0.058626626 0.010177487
-0.030397285 -0.060561188 0.010281977
-0.067365833 0.017668283 0.011868993
-0.067065261 0.015687972 0.011809382
-0.0661676 0.013310781 0.01164305
-0.064897545 0.011033632 0.010824171
-0.063385434 0.0088723125 0.0099055152
-0.062427793 0.0068702362 0.0096428106
-0.062613547 0.0052715694 0.009581605
-0.036268644 -0.044717006 0.0091511775
-0.034949172 -0.04674162 0.0089543434
-0.033960827 -0.048772 0.0087472117
-0.03314073 -0.051033732 0.0085269073
-0.031736132 -0.053159639 0.0086072199
-0.030593647 -0.05534998 0.0090804752
-0.029782748 -0.058049548 0.0096371351
-0.028631393 -0.060184158 0.010237764
-0.027012754 -0.062121373 0.010331178
-0.066040814 0.01921499 0.011963154
-0.065125778 0.016875863 0.011353749
-0.063856453 0.014480736 0.010764356
-0.062532172 0.01239967 0.01010463
-0.06105794 0.010075201 0.0097959498
-0.060143791 0.0082852999 0.0097616874
-0.059229642 0.0064953971 0.0097274547
-0.029959165 -0.052777745 0.0085635064
-0.028426901 -0.054727007 0.0086677913
-0.027513208 -0.056755703 0.0089005232
-0.026154175 -0.058831543 0.0090855621
-0.025232555 -0.061378643 0.010035944
-0.023919662 -0.062941901 0.010230324
-0.02276217 -0.064468026 0.010379548
-0.065042913 0.024162687 0.01216545
-0.064873226 0.022443932 0.011944092
-0.063994102 0.020457827 0.011401481
-0.062895514 0.01807015 0.01090721
-0.06176101 0.015822358 0.010349387
-0.060449675 0.013593767 0.0099366866
-0.059670758 0.011283727 0.0098802503
-0.025339009 -0.055936877 0.0085949535
-0.024165655 -0.057596762 0.008716167
-0.023083732 -0.059774805 0.0091562681
-0.021962062 -0.061958529 0.0096012894
-0.020662682 -0.064089969 0.010345567
-0.019311545 -0.066027701 0.010430763
-0.064125285 0.028082112 0.012329578
-0.063555069 0.025627881 0.011928073
-0.062717013 0.023645407 0.011217494
-0.061788123 0.021658167 0.010843178
-0.060738631 0.01926177 0.010124668
-0.059749443 0.017044613 0.010077921
-0.022132171 -0.057309926 0.0086452384
-0.020922003 -0.058698252 0.0086340345
-0.019643713 -0.060915355 0.0091521991
-0.018382989 -0.063159451 0.0095576895
-0.017103389 -0.065323301 0.010189023
-0.015732234 -0.067189902 0.01049975
-0.063512594 0.030584911 0.012435186
-0.062514752 0.028979793 0.01226691
-0.061351955 0.026839193 0.011370087
-0.060301188 0.024457037 0.010652095
-0.059368834 0.022466712 0.010277806
-0.058353059 0.020477962 0.010239787
-0.05733734 0.018489176 0.010201768
-0.01879566 -0.058282655 0.0087133711
-0.01736615 -0.060018707 0.0086967824
-0.016077505 -0.062186122 0.0088833347
-0.014800773 -0.064360358 0.0095142107
-0.013672485 -0.066451825 0.01021294
-0.012813801 -0.068357125 0.010548418
-0.061959233 0.034363799 0.012613865
-0.061792798 0.032332886 0.012548393
-0.060838398 0.030169394 0.011876782
-0.059135877 0.028055554 0.010812652
-0.057998981 0.025671687 0.010430946
-0.057380855 0.023480209 0.010373686
-0.056136671 0.021464663 0.010341749
-0.055552505 0.019900423 0.01030525
-0.013842696 -0.061439212 0.0087550916
-0.012712213 -0.063210964 0.0088711064
-0.011613835 -0.065357849 0.0094879474
-0.010710506 -0.067980632 0.010514486
-0.0095005864 -0.069323108 0.010616072
-0.062011067 0.040311307 0.012818789
-0.061598931 0.0385301 0.012769498
-0.060634259 0.03591048 0.012707994
-0.05973614 0.033606395 0.011988098
-0.058327109 0.031448912 0.011122013
-0.057390656 0.029190267 0.010571654
-0.010774215 -0.062214382 0.0088218888
-0.0094402339 -0.064220689 0.0090432521
-0.0084434412 -0.066582851 0.0097424574
-0.0071350895 -0.068651877 0.010586502
-0.060335226 0.041414578 0.012908291
-0.059624821 0.039536525 0.012864761
-0.058574867 0.037192382 0.01214807
-0.057546601 0.034840871 0.011319236
-0.056466598 0.033137184 0.010736937
-0.0071697263 -0.063384697 0.0088913562
-0.0063139955 -0.065304324 0.009226298
-0.0049831774 -0.06766665 0.010311075
-0.0036488874 -0.06957572 0.010786056
-0.059659354 0.043501537 0.013001407
-0.058361065 0.042421024 0.013003554
-0.057308149 0.040755246 0.012755403
-0.056330588 0.038426805 0.011703366
-0.055694595 0.03620448 0.010867065
-0.0040987376 -0.064445041 0.0089483839
-0.0028507859 -0.066330411 0.0095883934
-0.0015972998 -0.06841711 0.010444034
-0.00047302214 -0.069947958 0.01087015
-0.056088723 0.043330576 0.013104549
-0.054954883 0.041736446 0.012193998
-0.054118957 0.039514642 0.011280376
-0.054110005 0.037680741 0.010966688
-0.0021045785 -0.064144582 0.0090197027
-0.00049235806 -0.065294355 0.0091402745
0.0007527651 -0.067425907 0.0098828999
0.0017137557 -0.069482774 0.010810091
-0.054131847 0.046319515 0.013268091
-0.053808745 0.04456386 0.012816554
-0.052660413 0.042526737 0.011779896
-0.051839098 0.040593106 0.011137179
0.0016295272 -0.064914621 0.0091070468
0.0031106838 -0.066464253 0.0092097325
0.0041038939 -0.068683997 0.010325823
0.0050668283 -0.070477344 0.010877969
-0.052973323 0.049897116 0.013427723
-0.052834224 0.047875624 0.013236608
-0.051482309 0.045897752 0.012110882
-0.05056937 0.043830581 0.011288434
0.0055779587 -0.06584274 0.0091954404
0.0065672933 -0.067498654 0.0095435502
0.007372336 -0.06975244 0.010560447
0.0082649291 -0.071467191 0.011084313
-0.053025097 0.055844657 0.013632648
-0.052218188 0.054264717 0.013602433
-0.051514208 0.051494401 0.013527714
-0.050753344 0.049184911 0.012692177
-0.049597561 0.047116756 0.011575207
0.0084969401 -0.06625963 0.0092701269
0.0094486894 -0.06867867 0.0099432487
0.01073659 -0.07066936 0.011187499
-0.051349267 0.056947924 0.01372215
-0.050638907 0.055069845 0.01367862
-0.049544685 0.05275118 0.013075421
-0.04851529 0.050452445 0.012137244
-0.047814645 0.048510272 0.011535021
0.01029047 -0.065846607 0.0093392497
0.01170174 -0.067495316 0.0097422572
0.013109948 -0.069818787 0.011067106
0.014704574 -0.070922248 0.011299971
-0.049252246 0.058479268 0.013839344
-0.048269965 0.056277566 0.0137929
-0.047239468 0.053994145 0.012855283
-0.046178635 0.051686011 0.012028959
-0.04583016 0.049923036 0.01164471
0.013977441 -0.066566527 0.009649368
0.015487114 -0.068568818 0.010704831
0.016283857 -0.070117116 0.011376158
-0.046295851 0.057283983 0.013888163
-0.044840857 0.055194281 0.013081451
-0.043816771 0.052911662 0.012032453
0.016377689 -0.065500528 0.0095372153
0.017472619 -0.067126676 0.010315076
0.018530628 -0.069086373 0.011146906
-0.045532092 0.060660306 0.014028719
-0.044342678 0.058302838 0.013871985
-0.042728074 0.056230482 0.012673539
-0.041876793 0.05454538 0.011925976
0.018666042 -0.064584568 0.0096389269
0.019717883 -0.065843143 0.0098776435
0.020602176 -0.068516977 0.011263291
-0.043163147 0.061868034 0.014143029
-0.042054385 0.059562605 0.013540709
-0.040940505 0.057427496 0.012680302
-0.039892308 0.055958137 0.012035664
0.021740932 -0.065068178 0.010002071
0.022823533 -0.067453846 0.011167867
0.024206229 -0.069065176 0.01165469
-0.040794205 0.063075744 0.01425731
-0.039681446 0.060772337 0.013655204
-0.038640462 0.058511183 0.01260745
-0.037904326 0.056971628 0.012131572
0.023803525 -0.064096041 0.0098128514
0.025209604 -0.066325173 0.011029678
0.0264997 -0.068294205 0.011751541
-0.038425308 0.064283438 0.014371619
-0.03727033 0.061954573 0.013992362
-0.036167957 0.059661224 0.013279071
-0.035358164 0.058075774 0.013248757
0.026343601 -0.063427739 0.0099136187
0.027416993 -0.065091245 0.010589396
0.028714227 -0.066980042 0.011614538
0.029751033 -0.068229698 0.011853094
-0.037459828 0.067264773 0.014504651
-0.036451194 0.065289855 0.014466882
-0.034951244 0.063207723 0.013773028
-0.033807468 0.060886577 0.013282488
-0.032750212 0.059120625 0.012764039
0.028234353 -0.06271448 0.0099961488
0.029827198 -0.063829683 0.010228552
0.030804632 -0.065754503 0.011470703
0.031596459 -0.067620754 0.011930615
-0.035485715 0.068271197 0.014599884
-0.034494158 0.066311829 0.01445093
-0.03281761 0.064253673 0.013397876
-0.031543493 0.062197037 0.012618576
-0.031339716 0.059817016 0.012430904
0.032179099 -0.062834017 0.010112529
0.032825161 -0.065017007 0.01148653
0.033705477 -0.066924863 0.012019154
-0.032980148 0.06934683 0.013963014
-0.032233428 0.067344323 0.013809025
-0.031066483 0.065489165 0.013136767
-0.029975662 0.063687466 0.012606971
0.03435402 -0.062268313 0.010198584
0.03492282 -0.063839287 0.01149615
0.036076877 -0.066000357 0.012123718
0.03754472 -0.067575239 0.012113882
-0.030690368 0.070446946 0.013820903
-0.029678196 0.068465091 0.013782995
-0.028756991 0.06657663 0.013078214
-0.027990581 0.065033689 0.012714343
0.036406785 -0.061054695 0.01030346
0.037318747 -0.062698141 0.011386503
0.038445827 -0.064792655 0.012237998
0.039656192 -0.067162566 0.012192706
0.041261379 -0.069331177 0.012166429
-0.028361568 0.071509302 0.013928908
-0.027300909 0.069677055 0.01389771
-0.026374184 0.06779141 0.01319317
-0.025207417 0.066452578 0.012848645
0.038792353 -0.059838504 0.01041855
0.039706219 -0.061521173 0.01138908
0.040826686 -0.063619412 0.012240253
0.042025134 -0.065954842 0.012306985
0.043235503 -0.068324767 0.012261692
-0.025901364 0.072379075 0.013633864
-0.024816448 0.070613526 0.013227531
-0.02382892 0.068659306 0.012967395
-0.02321944 0.067466058 0.012944554
0.041225124 -0.058673378 0.011033835
0.042083502 -0.060309201 0.011503796
0.043183666 -0.062377248 0.012466617
0.044394087 -0.064747132 0.012421296
0.045376372 -0.066948846 0.012374852
-0.022856666 0.071661577 0.013101352
-0.021643009 0.069873981 0.013076309
-0.021231517 0.068479538 0.013040462
0.043315474 -0.058112558 0.012285053
0.044149142 -0.059395902 0.012599649
0.045157786 -0.061370831 0.01256185
0.046368197 -0.0637407 0.012516559
0.047376834 -0.065715633 0.01247882
0.045518078 -0.057204526 0.012717544
0.046123262 -0.058389474 0.012694883
0.047131941 -0.060364369 0.012657115
0.048342314 -0.062734284 0.012611792
0.047097351 -0.056399383 0.012793761
0.048492208 -0.057181764 0.012809163
0.049500842 -0.059156694 0.012771424
0.050711256 -0.061526563 0.012726102
0.050650805 -0.054587808 0.012965212
0.050861146 -0.055974044 0.012923473
0.051869798 -0.057948984 0.012885705
0.056100562 -0.042848565 0.013539311
0.056250457 -0.037296038 0.013736682
0.056861445 -0.039141815 0.013691242
0.057331976 -0.041332427 0.013295872
0.058636703 -0.043840736 0.012692485
0.056402259 -0.034128617 0.013350781
0.057469118 -0.035712261 0.013161533
0.058774773 -0.03797571 0.012664017
0.059856255 -0.040328488 0.012517997
0.061032157 -0.042655788 0.012695601
0.062165726 -0.044922799 0.013096393
0.058329728 -0.033334557 0.011935651
0.059442677 -0.035023108 0.011911009
0.06110777 -0.037056815 0.011891287
0.062172133 -0.038895477 0.011859956
0.063252427 -0.041105095 0.012567008
0.064476423 -0.043631647 0.013545495
0.063550681 -0.036688719 0.011978647
0.06432347 -0.038034886 0.012155749
0.065244958 -0.040268771 0.012764174
0.066409171 -0.042571399 0.013863815
0.065538652 -0.035675231 0.012074585
0.066285938 -0.037191845 0.01237845
0.067371495 -0.039423954 0.013001458
0.068383291 -0.041564982 0.013959048
0.067920737 -0.034059763 0.012203455
0.068645924 -0.035953175 0.012604769
0.069748774 -0.038211986 0.013116173
0.070645198 -0.040320992 0.013499351
0.069886073 -0.030450948 0.012388782
0.069903448 -0.032447357 0.012320032
0.070957653 -0.034668498 0.013053682
0.072126009 -0.037000053 0.013230858
0.071075961 -0.02951012 0.01245779
0.071891427 -0.03143388 0.012415941
0.072892405 -0.033611879 0.013371916
0.072643161 -0.026037427 0.012626253
0.07266055 -0.028033862 0.012557503
0.073879406 -0.030420374 0.01251185
0.074297279 -0.032546841 0.012450759
0.073977418 -0.024479905 0.012721119
0.075046122 -0.026817666 0.012672594
0.075864479 -0.029074151 0.012619251
0.024620548 0.077016272 0.014737555
0.075394399 -0.020958461 0.012886679
0.076212779 -0.023214966 0.012833336
0.077281475 -0.025552722 0.012784812
0.076664127 -0.017720982 0.013037845
0.077379473 -0.019612238 0.012994081
0.078598335 -0.021998769 0.012948427
0.07773935 -0.015083983 0.013162253
0.078351676 -0.016609993 0.013127978
0.079367451 -0.018598745 0.013089989
0.080425531 -0.020866729 0.013043541
0.079306558 -0.011611298 0.013330716
0.07932394 -0.013607717 0.013261966
0.080339655 -0.015596504 0.013223946
0.081205219 -0.017536504 0.013183026
0.079254344 -0.005622054 0.013537082
0.079660632 -0.0064175739 0.013521874
0.081117459 -0.013194679 0.013331059
0.078389555 0.0019582082 0.013773864
0.078965381 4.5948836e-05 0.013725063
0.079622373 -0.0020254552 0.013673212
0.080438435 -0.0040157535 0.013629077
0.081657298 -0.0064022955 0.013583424
0.082372703 -0.0082935151 0.01353957
0.079155773 0.0056909705 0.01392689
0.079723865 0.0035157597 0.013868731
0.080792569 0.0011779962 0.013820207
0.081808291 -0.00081078638 0.013782186
0.08279559 -0.0027882394 0.0138549
0.078912012 0.010747015 0.014095007
0.079527289 0.0088883005 0.01404927
0.080342762 0.0069645373 0.014007391
0.081561625 0.0045780055 0.013961768
0.082480125 0.0022889907 0.01391031
0.083398677 4.5800168e-09 0.013858884
0.079681121 0.014147043 0.014236569
0.080299251 0.011955563 0.014179368
0.081315018 0.0099668102 0.014141349
0.082045496 0.0079758409 0.014094524
0.082851641 0.005486317 0.014032691
-0.059909839 -0.012408955 0.0080491928
-0.059094429 -0.01400552 0.0080186762
-0.058075167 -0.01600123 0.0079805162
-0.057293512 -0.018319303 0.007923888
-0.056231711 -0.020595171 0.0078773191
-0.055008598 -0.022990022 0.0078315148
-0.053386509 -0.02518147 0.0078049754
-0.052367248 -0.027177177 0.0077668154
-0.051445518 -0.029474152 0.0077152019
-0.050523795 -0.03177112 0.0076636178
-0.049300682 -0.034165967 0.007617814
-0.048079338 -0.036360491 0.0075789383
-0.046863183 -0.037953984 0.0075607579
-0.062204637 -0.0020082991 0.0083402283
-0.061422981 -0.0043263724 0.00828363
-0.060763691 -0.0064049871 0.0082315933
-0.059944749 -0.0084022069 0.0081872512
-0.058721635 -0.010797062 0.0081414767
-0.057498522 -0.013191911 0.0080956733
-0.056517441 -0.015211447 0.0078886934
-0.055535488 -0.017232867 0.0076816399
-0.054310903 -0.019630468 0.0076357862
-0.053086374 -0.022028087 0.0075899325
-0.051861841 -0.02442571 0.0075441082
-0.05084138 -0.026423721 0.0075059314
-0.049820922 -0.028421732 0.007467695
-0.048641872 -0.03086349 0.0071964795
-0.047438823 -0.033285458 0.0070379139
-0.046425156 -0.035494801 0.007087518
-0.045236882 -0.037325516 0.0070065977
-0.043721903 -0.039221402 0.0072122999
-0.062273305 0.0012769361 0.008452205
-0.061211504 -0.00099892588 0.0084056063
-0.059793346 -0.0034353274 0.0082213394
-0.058689151 -0.005240038 0.0078348899
-0.05773408 -0.0072714733 0.0075154286
-0.056560051 -0.0097002704 0.0072445329
-0.05533269 -0.012103437 0.0071985782
-0.054309882 -0.014106072 0.007160278
-0.05343831 -0.016059605 0.0071190698
-0.052460071 -0.018715983 0.0070567066
-0.051232658 -0.021119123 0.0070107831
-0.050005294 -0.023522286 0.0069648284
-0.048982486 -0.025524927 0.0069265282
-0.047959685 -0.027527565 0.0068882275
-0.046502259 -0.029957673 0.0068483697
-0.0451046 -0.032129791 0.0068156356
-0.04408174 -0.034132406 0.0067773657
-0.043058939 -0.03613504 0.0067390655
-0.041982807 -0.038489103 0.0066902027
-0.041013334 -0.040140316 0.0066624945
-0.061512157 0.0047588465 0.0085963495
-0.060466703 0.002403657 0.0084353015
-0.059350159 -3.1926116e-05 0.0079399263
-0.058122221 -0.0022995598 0.0077040186
-0.056808379 -0.0042739087 0.0074253418
-0.055947475 -0.0061571561 0.0073862458
-0.054958571 -0.0088838171 0.0073218001
-0.053731207 -0.011286985 0.0072758459
-0.052708402 -0.013289623 0.0072375452
-0.04248032 -0.033315975 0.0068546324
-0.041866638 -0.03451756 0.0068316404
-0.036974654 -0.042119876 0.0067171324
-0.035587002 -0.044278909 0.0076855905
-0.032529168 -0.050266009 0.0075711114
-0.060084406 0.0076247649 0.0087394854
-0.059345797 0.0056711459 0.0083605424
-0.05840506 0.0036142429 0.0077756112
-0.057457123 0.00094831886 0.0075868629
-0.056532215 -0.0013566338 0.0075350921
-0.055811871 -0.0032610614 0.0074909753
-0.034842014 -0.043952078 0.0073860427
-0.033504434 -0.045532331 0.0071050813
-0.032050073 -0.047626343 0.0070100203
-0.03076081 -0.049909461 0.0074150423
-0.029336559 -0.052016128 0.0076078647
-0.027689084 -0.053835299 0.0075950283
-0.030294161 -0.047295935 0.0067414576
-0.028519593 -0.049041525 0.0067350557
-0.02734511 -0.05114305 0.007073381
-0.026102515 -0.05286973 0.0073910002
-0.025025066 -0.054866735 0.0076405928
-0.023256646 -0.056606293 0.0076342337
-0.025511254 -0.050073974 0.0067911143
-0.024071792 -0.051822133 0.0067743855
-0.022756658 -0.053980805 0.007073266
-0.021857578 -0.056194864 0.0076912511
-0.022012239 -0.051655579 0.0068430798
-0.020390762 -0.053136662 0.0068411827
-0.019513223 -0.055314716 0.0072928737
-0.018507738 -0.057371341 0.0077527389
-0.017024456 -0.0589628 0.0077427924
-0.056420699 0.024081536 0.0094228117
-0.055605285 0.022484967 0.009392296
-0.01838268 -0.052834086 0.0069130259
-0.017164083 -0.054232083 0.0069017261
-0.0162846 -0.056679294 0.0073997583
-0.015020852 -0.05894747 0.0078045307
-0.013537515 -0.06053891 0.0077945553
-0.056366753 0.029391252 0.0096088471
-0.055844057 0.026890857 0.0095379986
-0.054719191 0.024780557 0.009070023
-0.054172304 0.023135515 0.0092584575
-0.015758393 -0.054020271 0.0069520222
-0.013983827 -0.055765849 0.0069456203
-0.012828172 -0.057858638 0.0072836564
-0.011591935 -0.059535306 0.0077458597
-0.010458334 -0.061316751 0.0078616356
-0.055494536 0.032770477 0.0097528277
-0.054772902 0.030513201 0.0092515871
-0.053959664 0.028116329 0.0086370362
-0.053450357 0.025707673 0.0085689574
-0.010975482 -0.056798313 0.0070016487
-0.0094792238 -0.058362383 0.0071042767
-0.008201628 -0.060530949 0.0078466181
-0.0068413103 -0.062491175 0.0079313274
-0.054719862 0.035848446 0.0098833553
-0.053689465 0.033987474 0.0092245201
-0.052900948 0.031877268 0.0087999804
-0.0072154333 -0.057573739 0.0070896046
-0.0058510555 -0.059540428 0.0071742143
-0.0048710811 -0.061717547 0.0078753848
-0.0041611041 -0.06347242 0.0079791434
-0.053006157 0.037285656 0.0098604551
-0.051921617 0.035192404 0.0090879956
-0.0038539178 -0.05875428 0.0071512777
-0.00285946 -0.06109545 0.0074757608
-0.001709722 -0.06310305 0.0080668433
-0.0511523 0.040350251 0.010148643
-0.050829682 0.038568847 0.0096517419
-0.050127007 0.036589578 0.0090483315
-0.0022454881 -0.058741983 0.0072008567
-0.00067542319 -0.060087021 0.0072021093
0.00062421674 -0.062134232 0.0078380834
0.001988586 -0.064026415 0.0081477668
-0.049576763 0.043501128 0.010306192
-0.049185328 0.041537546 0.0098745618
-0.048710469 0.039540667 0.0093609132
-0.048529051 0.037808083 0.0091394717
0.0017844836 -0.059716359 0.0072901202
0.0027985203 -0.060713828 0.0072864741
0.0040387064 -0.06293568 0.0078311116
0.0053692064 -0.064902119 0.0082206279
-0.048004076 0.046985924 0.010475218
-0.048031226 0.044996701 0.010182861
-0.0471939 0.042815741 0.0093541145
0.0050814827 -0.059650913 0.0073930994
0.0064324969 -0.061789665 0.0076937834
0.0076655364 -0.063982971 0.008322699
0.0085785296 -0.065278247 0.0083056074
-0.046810064 0.047930028 0.010544487
-0.045743838 0.046256986 0.0097403461
-0.045770261 0.044262681 0.0094478438
0.0070067062 -0.059073269 0.007471987
0.0086257132 -0.060267139 0.007479975
0.0097034154 -0.062466715 0.0079370523
0.010677961 -0.064761311 0.0083876988
-0.0449895 0.049241457 0.010645622
-0.043990515 0.047694091 0.0096213613
0.010766809 -0.059848674 0.0075599141
0.011741537 -0.061807629 0.0076646851
0.012674611 -0.06394463 0.0084770313
0.013888996 -0.065337799 0.0084657492
-0.042887453 0.050659392 0.010425384
-0.042193234 0.049115177 0.0097256294
0.012237743 -0.059435319 0.0076192003
0.013856702 -0.060629219 0.0076272171
0.015075242 -0.062860087 0.0081431177
0.016206559 -0.064558737 0.0085636005
-0.041150082 0.053750109 0.01091946
-0.040569339 0.051921554 0.010095095
0.016463455 -0.059805088 0.0077354638
0.017477866 -0.061705481 0.0080341231
0.01868297 -0.063612446 0.00867212
-0.039057612 0.055068403 0.011029175
-0.038438421 0.053337149 0.0099869221
0.018669855 -0.05918505 0.0078243939
0.019888461 -0.060583066 0.0078130644
0.021079341 -0.062678218 0.0087777432
-0.037103552 0.056111328 0.010874798
-0.03640987 0.05458767 0.010092313
0.021892054 -0.059763521 0.0079027414
0.023088269 -0.061761752 0.0085372413
0.024288662 -0.063054346 0.0088627227
-0.035048783 0.057458017 0.010734086
0.023977455 -0.059104212 0.0079893321
0.025096979 -0.060810275 0.0084092161
0.026207253 -0.062478684 0.0089413403
-0.032846902 0.058076605 0.010822803
-0.031737439 0.057382818 0.01083262
0.025902681 -0.058526576 0.00806819
0.027515322 -0.059687015 0.0081883939
0.028734926 -0.061667964 0.009046684
-0.030217467 0.05996123 0.011326086
-0.0297607 0.05842115 0.010762199
0.02992635 -0.058782984 0.0081821932
0.031103307 -0.060697503 0.0088190362
0.032693405 -0.061787937 0.0091634346
-0.028877659 0.062649935 0.01120299
-0.028389854 0.061151952 0.010815471
0.032411411 -0.057833385 0.0082910797
0.03336278 -0.059475876 0.0087636542
0.034159277 -0.061375994 0.0092225336
-0.027292928 0.063755751 0.01143992
-0.026222464 0.062305391 0.010671482
0.034736987 -0.057051644 0.008389283
0.035405029 -0.058728587 0.0087804776
0.035885263 -0.060160689 0.0093174586
-0.026529044 0.065983206 0.011790883
-0.025097171 0.064875163 0.011545866
-0.023972347 0.063136347 0.010912074
-0.02260167 0.062132053 0.010776083
0.036338467 -0.056235194 0.0084665511
0.037525505 -0.057535786 0.0087913508
0.038279124 -0.05894028 0.0094329538
-0.022725623 0.06641303 0.011921975
-0.021780616 0.064505242 0.011217252
-0.02100018 0.062948495 0.01085335
0.039354343 -0.056212105 0.0085594887
0.040442396 -0.058013216 0.008530179
-0.020349219 0.069636814 0.012106514
-0.020331763 0.067633443 0.012037499
-0.01935786 0.065698072 0.011555137
-0.018393429 0.063772641 0.010961597
-0.019347413 0.069644466 0.012137398
-0.018535146 0.068496116 0.01112128
-0.017814802 0.066591695 0.011077163
-0.0038786097 0.073292658 0.011735553
-0.0029837952 0.072133437 0.011722633
-0.0015956379 0.074355572 0.011842178
-0.00057535933 0.072640114 0.011813791
0.00084684778 0.075735517 0.012393719
0.0018293594 0.073577598 0.011919809
0.0030479562 0.072179601 0.011908479
0.0026314002 0.076824948 0.013058121
0.0038394392 0.074541211 0.012348341
0.0049192477 0.072797053 0.011987082
0.058756299 -0.032738011 0.010968308
0.059905645 -0.034332026 0.010948047
0.0045682285 0.077780932 0.012649906
0.0058352663 0.075599477 0.012223607
0.0070578759 0.073502727 0.012076936
0.060638074 -0.029712198 0.010129798
0.060482342 -0.031522684 0.011063235
0.061705455 -0.033917535 0.011017431
0.062843546 -0.035752047 0.010988506
0.0082422094 0.076686598 0.013113482
0.0094628492 0.074421123 0.012293505
0.010951003 0.072843216 0.012172958
0.061836284 -0.028764799 0.010199301
0.062734008 -0.030259071 0.010174829
0.064003073 -0.032414719 0.010555815
0.065118566 -0.034692828 0.011094766
0.010637161 0.077887945 0.013339569
0.011860273 0.075493105 0.013293795
0.013090197 0.073224612 0.012473994
0.01431075 0.071863703 0.012241568
0.065557897 -0.028970877 0.01030582
0.066385351 -0.031175312 0.010755038
0.067211039 -0.033374526 0.011204481
0.014254131 0.076713525 0.01340929
0.015249039 0.074512005 0.013220204
0.01645883 0.072793745 0.012589732
0.017531186 0.071486257 0.012326852
0.06744431 -0.026242318 0.010458183
0.067830741 -0.027734432 0.01056119
0.068563268 -0.029976616 0.011163522
0.016249066 0.077730559 0.013505552
0.017268324 0.075734854 0.013467392
0.018296987 0.073793434 0.013097726
0.019540031 0.071702681 0.012395719
0.068798512 -0.024744226 0.010551584
0.06976074 -0.026935382 0.011005396
0.070477165 -0.028774865 0.011463958
0.018246459 0.078461379 0.013591941
0.019263204 0.076751865 0.013563653
0.020282464 0.074756145 0.013525493
0.021535125 0.072485656 0.012706283
0.023032039 0.070925213 0.012475402
0.070217639 -0.021463007 0.010708856
0.070591658 -0.023565652 0.010869707
0.071503036 -0.025778458 0.011599337
0.021657113 0.0779723 0.013679149
0.022676371 0.07597658 0.013640989
0.023904458 0.073599607 0.013484728
0.025167381 0.071325801 0.01266576
0.02679209 0.070149787 0.012563328
0.071795754 -0.017966125 0.010878476
0.071937464 -0.020005494 0.01093712
0.072848059 -0.022230575 0.011652371
0.072841972 -0.024215473 0.011694497
0.02557116 0.077200837 0.013771926
0.026293345 0.074802145 0.013710709
0.027542826 0.072477803 0.013223252
0.028851645 0.070316337 0.012632022
0.030421706 0.068971306 0.012633275
0.072970584 -0.014338295 0.011040332
0.073111787 -0.016379254 0.01109892
0.074019261 -0.018613903 0.011813752
0.074414611 -0.02073071 0.011863553
0.028687257 0.076022588 0.013826205
0.029910371 0.073627733 0.013780401
0.031026561 0.071379051 0.013110729
0.032030135 0.0689836 0.012682853
0.073350497 -0.011788815 0.011140479
0.074475951 -0.013462813 0.011545742
0.075199917 -0.015287928 0.011933502
0.075984895 -0.016978821 0.012041797
0.031905252 0.074644744 0.013876662
0.033026423 0.072070912 0.013678532
0.034006383 0.069751717 0.013103562
0.035056539 0.067800492 0.01273423
0.036340382 0.066604018 0.01273189
0.074281029 -0.0078143794 0.011306886
0.074920885 -0.010288154 0.011351769
0.076148055 -0.012360089 0.012064139
0.077163793 -0.01429846 0.012170863
0.035074506 0.073116288 0.013920393
0.036142562 0.071271218 0.01388896
0.03718188 0.069308259 0.013630071
0.038470622 0.067006275 0.012922158
0.03983945 0.065022446 0.012783856
0.075296834 -0.0044022407 0.011456393
0.07606978 -0.006649286 0.011624439
0.07714247 -0.0089694737 0.012244041
0.078189664 -0.011302045 0.012306242
0.039555732 0.070495948 0.013966296
0.040790316 0.068116844 0.013810193
0.042086396 0.065812781 0.013102388
0.043387409 0.063592009 0.012842586
0.044826921 0.06184388 0.012825859
0.045775712 0.060644869 0.012813193
0.075028047 0.0033694995 0.011718063
0.07564757 0.0014978164 0.011671998
0.076190777 -0.00068084907 0.011738045
0.077166431 -0.0029908842 0.012118644
0.078137293 -0.0052919281 0.012513345
0.079462357 -0.0078863325 0.012463721
0.08058352 -0.010081625 0.012421767
0.080751725 -0.012133915 0.012355629
0.044395812 0.066926658 0.013990242
0.045645539 0.064560905 0.01372379
0.046720784 0.062620148 0.013244349
0.047786258 0.060660236 0.012875151
0.049413983 0.058461178 0.012848513
0.050837196 0.056662671 0.012829561
0.074673057 0.0094987033 0.011920026
0.075348832 0.0069405371 0.011851847
0.076322578 0.0046192743 0.012245907
0.077298008 0.0023046059 0.012626327
0.077839553 0.00013194827 0.012692582
0.078456923 -0.0017332665 0.012646665
0.048012841 0.065752245 0.014059935
0.049032096 0.063756533 0.014021775
0.050066452 0.061774146 0.013873322
0.051352266 0.059429523 0.013386277
0.05224283 0.056874461 0.012879856
0.053468484 0.054672349 0.012840809
0.054893404 0.052672789 0.012814919
0.05550709 0.051471211 0.012791957
0.074326776 0.01462272 0.012087364
0.075409852 0.012368991 0.01237586
0.076237045 0.010486644 0.012377508
0.077393137 0.0082692318 0.012850264
0.07818906 0.0060115731 0.012907412
0.078608409 0.0038777082 0.012846123
0.052046295 0.062777862 0.014079876
0.053269412 0.060383011 0.014034072
0.054143019 0.057821054 0.013638124
0.055419337 0.055457409 0.013261355
0.056440946 0.053457074 0.013223132
0.057517633 0.051486578 0.012853885
0.058915343 0.049314488 0.012821181
0.060470674 0.047186699 0.012794794
0.061795935 0.045085851 0.01276234
0.062818736 0.043083213 0.012724039
0.0640461 0.04068004 0.012678085
0.065273523 0.038276907 0.012632132
0.066500887 0.035873737 0.012586206
0.067523688 0.033871096 0.012547906
0.068546496 0.031868465 0.012509606
0.069773853 0.029465295 0.012463652
0.071001224 0.027062133 0.012417697
0.072024018 0.025059495 0.012379427
0.072646469 0.022852745 0.012321809
0.073760748 0.02024769 0.012265395
0.07470084 0.017842311 0.012210584
0.075826645 0.015455282 0.012607025
0.077127293 0.013305007 0.012985209
0.078142516 0.011353898 0.0130915
0.078759886 0.009488686 0.013045583
0.054466337 0.060993217 0.014091834
0.05568945 0.058598362 0.01404603
0.057540834 0.056380074 0.01402558
0.058729835 0.05461463 0.014000596
0.059749093 0.052618921 0.013962436
0.061049253 0.050260644 0.013475304
0.062313929 0.047879227 0.013208835
0.063335538 0.045878895 0.013170581
0.064336337 0.043872017 0.013242677
0.065562136 0.04147194 0.013196776
0.066809088 0.039077789 0.01304055
0.068080068 0.036685612 0.012773832
0.069125116 0.034687527 0.012625173
0.070078298 0.032676753 0.012918169
0.071304247 0.030276356 0.012872265
0.072482377 0.027874872 0.013047295
0.073713794 0.025627477 0.013201539
0.074522905 0.02359076 0.012976784
0.075724088 0.021480184 0.013035535
0.076897979 0.019088559 0.013210794
0.078095958 0.016696222 0.013275558
0.078836843 0.014457983 0.01322047
0.070010923 0.037871517 0.013763837
0.070917435 0.035674594 0.013715258
0.071936697 0.033678886 0.013677098
0.073159814 0.031284034 0.013631294
0.074382924 0.028889185 0.01358552
0.075606093 0.026494354 0.013539717
-0.052294008 -0.016648708 0.0061324872
-0.051472932 -0.018256363 0.0061017405
-0.050241318 -0.020667842 0.0060556354
-0.049214918 -0.022677379 0.0060172258
-0.048188575 -0.024686946 0.005978785
-0.04695696 -0.027098427 0.0059326803
-0.045930613 -0.029107992 0.0058942689
-0.040798888 -0.039155822 0.0057021258
-0.040183078 -0.040361565 0.0056790733
-0.05563106 -0.0041662497 0.0064639584
-0.05490819 -0.0060772514 0.0064196959
-0.053980112 -0.0083901929 0.0063677677
-0.052748442 -0.010801648 0.0063216635
-0.051722147 -0.012811239 0.006283192
-0.051097486 -0.015025589 0.0062254132
-0.049865875 -0.017437065 0.0061793085
-0.048634257 -0.019848544 0.0061332034
-0.047607914 -0.021858115 0.0060947929
-0.046581566 -0.02386768 0.0060563516
-0.045349956 -0.026279157 0.0060102469
-0.044118337 -0.028690636 0.0059641418
-0.042886727 -0.031102119 0.0059180371
-0.041458644 -0.032906875 0.0058989655
-0.040682271 -0.035170518 0.0058440967
-0.039602421 -0.037532728 0.0057950807
-0.038370807 -0.039944209 0.0057489458
-0.036877215 -0.041546714 0.0057389056
-0.035925124 -0.042749874 0.0057262219
-0.057941765 0.0063066445 0.0067570191
-0.057013631 0.0039937268 0.0067050625
-0.056085546 0.0016807867 0.0066531342
-0.055103905 -0.00098477199 0.0065905713
-0.054229323 -0.0029450727 0.0065492196
-0.053202979 -0.0049546324 0.0065108086
-0.051971365 -0.0073661162 0.0064646741
-0.050739694 -0.0097775683 0.0064185699
-0.049713355 -0.011787136 0.0063801589
-0.048687007 -0.0137967 0.0063417181
-0.047455393 -0.016208179 0.006295613
-0.046223778 -0.01861966 0.0062495084
-0.045197431 -0.020629223 0.0062110974
-0.044171087 -0.022638794 0.006172657
-0.042959496 -0.025069982 0.0060140025
-0.041747466 -0.02750212 0.0058553708
-0.040476244 -0.029873233 0.0060343421
-0.0394499 -0.031882793 0.0059959013
-0.038423553 -0.033892363 0.0059574908
-0.037191886 -0.036303815 0.0059113866
-0.035960272 -0.038715299 0.0058652516
-0.034933925 -0.040724862 0.0058268411
-0.033907581 -0.042734433 0.0057884306
-0.032274231 -0.044941101 0.0057616942
-0.031051416 -0.046343945 0.0057503167
-0.056736503 0.0069211014 0.0068151872
-0.055710156 0.0049115331 0.0067767762
-0.054478541 0.0025000561 0.006730671
-0.053246927 8.8573477e-05 0.0066845664
-0.052220583 -0.001920991 0.0066461256
-0.050862063 -0.0037594556 0.0062901052
-0.049629033 -0.0061737075 0.0062439498
-0.048395999 -0.0085879546 0.0061977948
-0.047368456 -0.010599823 0.0061592776
-0.046340968 -0.012611712 0.0061208494
-0.045129083 -0.015041983 0.0059622396
-0.043937363 -0.0174901 0.0056911614
-0.042908672 -0.019504292 0.005652687
-0.041900177 -0.021537121 0.0055016442
-0.040705189 -0.02399327 0.0052304096
-0.039469324 -0.026413063 0.005184154
-0.038442165 -0.028633578 0.0052814148
-0.037195068 -0.030421663 0.0054898765
-0.036065638 -0.032730438 0.0057361554
-0.035183143 -0.035279736 0.0060082925
-0.033951528 -0.037691221 0.0059621879
-0.032925185 -0.039700788 0.0059237173
-0.031898838 -0.041710354 0.0058853365
-0.030667225 -0.044121828 0.0058392314
-0.029435609 -0.046533313 0.0057931263
-0.028212793 -0.047936156 0.0057817195
-0.056176376 0.012103423 0.0070122452
-0.055848286 0.010337148 0.0065605063
-0.05500738 0.0083272448 0.0065831719
-0.053798813 0.0059049902 0.0064247479
-0.052613791 0.00347287 0.0061540706
-0.051379349 0.0010558497 0.0061078356
-0.050350603 -0.0009583194 0.0060693016
-0.048988361 -0.0028007035 0.0057132398
-0.047752492 -0.0052204989 0.0056669847
-0.046516627 -0.007640291 0.0056206994
-0.045486741 -0.0096567851 0.0055821482
-0.044456854 -0.011673281 0.005543597
-0.043220989 -0.014093072 0.0054973415
-0.041985124 -0.016512867 0.0054510562
-0.040955242 -0.018529361 0.0054125055
-0.039925352 -0.020545855 0.0053739538
-0.038689487 -0.022965647 0.005327669
-0.037453622 -0.025385445 0.0052814134
-0.036423735 -0.027401933 0.0052428623
-0.035393849 -0.029418433 0.0052042813
-0.034157988 -0.031838223 0.0051580258
-0.033274043 -0.034393769 0.0054300106
-0.032258239 -0.03661833 0.0054790881
-0.031076767 -0.038489848 0.0052714795
-0.029951351 -0.040787745 0.0055319224
-0.028702646 -0.043176733 0.005598342
-0.027426865 -0.045509238 0.0058900323
-0.026400523 -0.047518793 0.0058516217
-0.025243163 -0.049123865 0.0058312439
-0.023749575 -0.050726369 0.0058212038
-0.054647554 0.013502819 0.0061064735
-0.053769968 0.011535756 0.0060649775
-0.052740082 0.0095192604 0.0060264263
-0.051504213 0.0070994664 0.0059801415
-0.050268348 0.0046796743 0.0059338859
-0.049032487 0.0022598791 0.0058876304
-0.048002597 0.00024338662 0.0058490494
-0.046972711 -0.0017731074 0.0058104983
-0.045736846 -0.0041929013 0.0057642432
-0.029876586 -0.035246916 0.0051704478
-0.028846696 -0.037263412 0.0051318961
-0.027610833 -0.039683204 0.0050856411
-0.02637497 -0.042102996 0.0050393557
-0.025354212 -0.044315796 0.0051367376
-0.024088135 -0.046029203 0.0055985739
-0.022963647 -0.048299447 0.0059294873
-0.021682924 -0.05055926 0.0058901552
-0.020509215 -0.052113771 0.0058720047
-0.053129587 0.017046968 0.0062758992
-0.052381035 0.014785388 0.0062202397
-0.051351149 0.012768894 0.006181688
-0.050321262 0.010752399 0.0061431369
-0.024008064 -0.040971223 0.0047060503
-0.022926264 -0.04288635 0.0051175151
-0.021896375 -0.044902846 0.0050789639
-0.020600097 -0.047181815 0.0055955835
-0.01932155 -0.049482044 0.0059996871
-0.018040778 -0.051741827 0.0059603564
-0.016465327 -0.05309153 0.0059615746
-0.0522817 0.020808654 0.0064324345
-0.05119808 0.018438319 0.0063832058
-0.019488826 -0.04369583 0.0050831931
-0.018241636 -0.046089474 0.0051493905
-0.016973933 -0.048422974 0.0054407488
-0.016081193 -0.050869439 0.0060505187
-0.014849571 -0.053280931 0.0060043838
-0.013626706 -0.054683745 0.0059930068
-0.052886005 0.028133456 0.0076693622
-0.052405473 0.025716122 0.0074571301
-0.051743012 0.023700936 0.0070498241
-0.050418295 0.02188571 0.0065267491
-0.048878677 0.01951379 0.0062411455
-0.016225992 -0.045061871 0.0052466486
-0.014990125 -0.047481667 0.0052003935
-0.01410941 -0.049960844 0.0056973831
-0.012840778 -0.052256826 0.0061013205
-0.011814436 -0.054266386 0.0060628797
-0.010657132 -0.055871475 0.006042501
-0.051906541 0.031503316 0.0078162747
-0.051507588 0.029355761 0.0076426882
-0.05043862 0.026945816 0.0068130274
-0.049257785 0.024814775 0.0065208562
-0.048526868 0.022756757 0.0062393378
-0.012974426 -0.046454038 0.0052976226
-0.011738561 -0.048873838 0.0052513671
-0.010627473 -0.051143512 0.0055818842
-0.0093868766 -0.052844875 0.0060434053
-0.0083776098 -0.055047065 0.0061407741
-0.0068840184 -0.056649569 0.006130734
-0.050322946 0.035012305 0.0079864888
-0.050305404 0.032995004 0.0079170335
-0.049210399 0.030593088 0.0071996571
-0.048087712 0.028180629 0.0065940525
-0.047004864 0.025758745 0.0057644122
-0.045971487 0.0237353 0.00572572
-0.0082898531 -0.0496572 0.0053295265
-0.0072463891 -0.051613592 0.0055159167
-0.005967075 -0.053818148 0.0062570805
-0.0047354633 -0.056229625 0.0062109753
-0.0032418701 -0.05783214 0.0062009348
-0.049120616 0.035962973 0.0080562225
-0.048093978 0.033995904 0.00787629
-0.046860594 0.031832393 0.006980787
-0.045753039 0.029419409 0.0062634293
-0.044577762 0.02699611 0.0058815274
-0.0035997515 -0.052829776 0.0054738503
-0.0024930711 -0.055055205 0.0059448462
-0.001495106 -0.057617027 0.0062617767
-0.00027228706 -0.059019879 0.0062503992
-0.04753121 0.038799509 0.0082032746
-0.047314212 0.037052754 0.0081492867
-0.046311215 0.035206188 0.0077403998
-0.044844948 0.032859992 0.0070780455
-0.043369722 0.030659689 0.0061568613
-0.0015896367 -0.051832743 0.005458659
-0.00046192674 -0.054415729 0.005546411
0.00051363354 -0.056592952 0.0063587129
0.0015399861 -0.058602523 0.0063202716
0.0029593222 -0.059398618 0.0063359588
-0.046349414 0.042103671 0.008354119
-0.045951262 0.040296521 0.0081923213
-0.045062535 0.038316868 0.0074277124
-0.04406511 0.036307406 0.00722156
-0.042889513 0.033896305 0.0068400824
-0.041368168 0.031692721 0.0061426302
0.0016619329 -0.053224921 0.0055096331
0.0029176751 -0.055425953 0.0062501859
0.0039505246 -0.057373613 0.006436578
0.0048698015 -0.058677912 0.0064193476
-0.044599444 0.043882295 0.0084693544
-0.043664012 0.041561201 0.0076386826
-0.042676181 0.03955704 0.0073768515
-0.041705217 0.037553415 0.0070032333
-0.040585678 0.035151977 0.0062866472
-0.039345559 0.032723866 0.0062402412
0.0040807468 -0.051991783 0.0056263437
0.0053264759 -0.054256909 0.0061418517
0.0063609993 -0.056144722 0.006552883
0.0074364487 -0.058002613 0.006521245
-0.043063544 0.047071487 0.0086269816
-0.042421002 0.045189038 0.0081363656
-0.041287299 0.042806644 0.0075321123
-0.040147301 0.040413499 0.006927669
-0.039191946 0.038412783 0.0064424546
-0.038158517 0.036389366 0.0064037633
-0.036918402 0.033961255 0.0063573276
0.0075293994 -0.052775159 0.0057045021
0.0085619101 -0.054698143 0.006002943
0.0097978814 -0.056925379 0.0066307783
0.010943853 -0.058772631 0.0066015939
-0.041358273 0.048194129 0.0087180659
-0.040477723 0.04624214 0.0078429608
-0.039271597 0.043834269 0.0076293419
-0.037798271 0.041673571 0.0065982617
-0.036764838 0.039650146 0.0065595703
-0.035731409 0.037626728 0.0065208785
-0.034491297 0.035198618 0.0064744428
-0.033403967 0.032820135 0.0064250599
0.0095450999 -0.051747527 0.0058017615
0.010574984 -0.053764023 0.0057631806
0.011807325 -0.055947788 0.0065592416
0.013038233 -0.058312774 0.0066815792
-0.039554801 0.049620122 0.0088226963
-0.038491819 0.04728166 0.0077728853
-0.037273746 0.044868916 0.0076150931
-0.035775665 0.042704716 0.0066958433
-0.034742236 0.040681291 0.0066571515
-0.033708807 0.03865787 0.0066184597
-0.032632276 0.036350388 0.0065712272
0.011588234 -0.050525256 0.0057635792
0.01259069 -0.052736405 0.0058604395
0.013824054 -0.055093434 0.0060387282
0.015046977 -0.057288695 0.0067785149
0.015868051 -0.058896348 0.0067477389
-0.037563603 0.052661493 0.0089890882
-0.037144322 0.050849009 0.0089390008
-0.036073003 0.048514798 0.0078895958
-0.034905672 0.046124905 0.0073973313
-0.033753064 0.043735862 0.0067934245
-0.032719631 0.041712441 0.0067547332
