# .PCD v0.7 - Point Cloud Data file format
VERSION 0.7
FIELDS x y z
SIZE 4 4 4
TYPE F F F
COUNT 1 1 1
WIDTH 1266
HEIGHT 1
VIEWPOINT 0 0 0 1 0 0 0
POINTS 1266
DATA ascii
-0.059007715 0.0056905141 0.0072199814
-0.057927962 0.0080940546 0.007179223
-0.056975462 0.010108142 0.007146067
-0.056173302 0.011999779 0.0071129259
-0.038261402 0.040217288 0.0067478577
-0.037102126 0.042001672 0.0067253504
-0.035525341 0.044378217 0.0066960854
-0.034204442 0.046319731 0.0066728452
-0.032654401 0.048358895 0.0066520302
-0.031364542 0.050398629 0.0071591912
-0.029982492 0.052431446 0.0073516937
-0.029025633 0.054619458 0.0075641228
-0.02765462 0.056796711 0.0077024838
-0.026276812 0.058760952 0.0084025729
-0.024835037 0.060464442 0.0084995339
-0.065529428 -0.010737379 0.0095186429
-0.064384229 -0.008552378 0.0090473592
-0.063130118 -0.0062479204 0.0083668018
-0.062038857 -0.0042699524 0.0078373291
-0.060545757 -0.0021913885 0.0074742464
-0.05950531 0.00018756087 0.0073563037
-0.058899272 0.001757907 0.0073275017
-0.030852286 0.047700584 0.0067088064
-0.029550424 0.049111038 0.0066994159
-0.027907914 0.051271379 0.0067543117
-0.026799005 0.053519476 0.0068914602
-0.025525795 0.055588644 0.0072807604
-0.024038034 0.057588503 0.0075931568
-0.022786075 0.059691127 0.008231231
-0.021514248 0.061812077 0.0085356887
-0.020308241 0.063241974 0.0085236682
-0.064943641 -0.016079552 0.0096742027
-0.064592473 -0.013913066 0.0096239094
-0.063844316 -0.01194961 0.0090874117
-0.06228504 -0.009838555 0.0083143814
-0.061018664 -0.0075314133 0.0076409653
-0.059989385 -0.0056238007 0.0075011635
-0.059521791 -0.003594236 0.0074570552
-0.025899654 0.050999373 0.0067282487
-0.024683636 0.052441187 0.0067161648
-0.02337933 0.054165114 0.0066984231
-0.022006884 0.056321301 0.0069207391
-0.02069045 0.058491606 0.007641755
-0.019493844 0.060616639 0.0079445383
-0.01804807 0.062908798 0.0085191671
-0.016286481 0.064578496 0.0085753528
-0.0643939 -0.019475745 0.0097769462
-0.063962795 -0.017436594 0.0096408585
-0.062696472 -0.015206428 0.0086991126
-0.061452184 -0.013428874 0.0081783067
-0.060151234 -0.011145908 0.0077077923
-0.059454545 -0.0087792194 0.0075971493
-0.022260308 0.051424965 0.0067959921
-0.021130901 0.052793648 0.0067839222
-0.019757949 0.055042587 0.0067536253
-0.018386228 0.057260223 0.0068075461
-0.017129503 0.05926111 0.0073650712
-0.015910836 0.061755817 0.0079312911
-0.01446869 0.063627653 0.0085402029
-0.013208128 0.065324388 0.0086223129
-0.063649721 -0.022553276 0.0098753972
-0.06322819 -0.020872872 0.0097284717
-0.061991889 -0.018797701 0.0088104662
-0.060687594 -0.016622428 0.0080529144
-0.059415206 -0.014792275 0.007758772
-0.058798846 -0.013000415 0.0077242274
-0.01913262 0.052456584 0.0068363901
-0.017658334 0.053908855 0.0068296194
-0.016136635 0.055920072 0.006808917
-0.015012731 0.058016483 0.0068773534
-0.013818406 0.060163118 0.0071461117
-0.012589582 0.062291868 0.0077162497
-0.011127081 0.064225271 0.008163291
-0.010129763 0.066070296 0.0086692879
-0.062268402 -0.026019447 0.0099980989
-0.062338397 -0.024153991 0.0098557519
-0.061343715 -0.022331113 0.0091918791
-0.059868768 -0.020125225 0.0081416182
-0.058880363 -0.017947696 0.0078547578
-0.013199381 0.0573618 0.0068341838
-0.011659656 0.058921121 0.0068259621
-0.010286757 0.06117009 0.00679571
-0.0089558074 0.063121155 0.0075229192
-0.0077728592 0.065471441 0.0084863873
-0.0059426068 0.066722915 0.0087428465
-0.061254986 -0.02740282 0.010057103
-0.060337931 -0.025499599 0.0092479028
-0.059268564 -0.023557084 0.0085521564
-0.058276486 -0.021451414 0.0079615572
-0.010178769 0.058458723 0.0068705091
-0.0084429188 0.060339339 0.006857994
-0.0071748951 0.062050257 0.006939861
-0.0057428954 0.064017296 0.007735556
-0.004266764 0.066047519 0.0086154183
-0.0028642439 0.067468815 0.0087898215
-0.060001906 -0.03090008 0.01017784
-0.059453413 -0.029001953 0.0096053556
-0.05820708 -0.026848311 0.0086076278
-0.057442687 -0.024899418 0.0080718594
-0.057284769 -0.023036133 0.0080254665
-0.005338938 0.061091483 0.0069053508
-0.0035757772 0.062725022 0.0070875771
-0.0022698203 0.064797089 0.0080879955
-0.00099229871 0.066661157 0.0086019496
0.00021412114 0.068214722 0.0088367807
-0.060176723 -0.036915202 0.010334853
-0.059186693 -0.034720566 0.010297704
-0.05868924 -0.032503918 0.010158267
-0.057426438 -0.030476382 0.0090679657
-0.056378972 -0.028291699 0.00818568
-0.0012595344 0.061660178 0.0069787959
2.9196572e-05 0.063543931 0.007289961
0.0011866139 0.065634631 0.0081407307
0.0025398997 0.067580923 0.0089042746
0.0044012656 0.068867333 0.0089103393
-0.059432492 -0.039992768 0.010433319
-0.05898609 -0.03795946 0.010388663
-0.057783537 -0.035785198 0.01002313
-0.05669428 -0.033874441 0.0094398232
-0.055456411 -0.031632591 0.0084617753
-0.055141516 -0.029634386 0.0082484549
0.00064361846 0.061263561 0.0070307571
0.0019871702 0.062501624 0.0070268894
0.0032800955 0.064448573 0.0077533554
0.0047592456 0.066701554 0.0084757525
0.006095516 0.068599127 0.0089543322
0.0074796355 0.069613248 0.0089573143
-0.058500342 -0.040852856 0.010476572
-0.057185769 -0.039176855 0.010460335
-0.055631436 -0.037159063 0.0095229642
-0.054547749 -0.035247836 0.008828369
-0.053764518 -0.033315744 0.0083768237
0.0038310131 0.061670881 0.0070891744
0.0054161511 0.063240089 0.0072245775
0.0068657566 0.065069988 0.007850416
0.0080565335 0.06721551 0.0085670259
0.0090368707 0.069013193 0.0090071969
-0.055291377 -0.042518705 0.010590856
-0.054988783 -0.040544979 0.010294513
-0.053418018 -0.038529273 0.0094131157
-0.052485216 -0.036655817 0.0084939161
-0.052213781 -0.034947503 0.0084541319
0.007577437 0.062031168 0.0071609588
0.0088388361 0.063741371 0.0072427001
0.010163622 0.065735139 0.008035359
0.011327533 0.067957133 0.0087516997
0.012725805 0.069255501 0.009080898
-0.054547153 -0.045596272 0.010689308
-0.053959388 -0.044096395 0.010661985
-0.052841291 -0.041933365 0.009711259
-0.051551122 -0.039713416 0.0090406844
-0.05088352 -0.038183946 0.0085695703
0.010681415 0.062783308 0.0072083306
0.012089631 0.064552553 0.0075251414
0.013532343 0.066776618 0.0083308788
0.014800612 0.06853652 0.0091452096
-0.052040309 -0.045570474 0.0092421975
-0.050692234 -0.043333843 0.0090240845
-0.049563993 -0.041149274 0.0086775422
0.012441893 0.062297348 0.0072595691
0.014378434 0.063509651 0.0072692214
0.015816413 0.06553027 0.008122013
0.016964989 0.067629576 0.009049735
-0.049996633 -0.048645426 0.0088685462
-0.049854543 -0.046968456 0.0088268071
-0.048481595 -0.044719521 0.0087964963
-0.048143324 -0.042721301 0.0087504489
0.016937599 0.062729701 0.0073457202
0.018118842 0.064313263 0.0078293541
0.019254008 0.066590853 0.0090272175
0.020714886 0.067661926 0.0092971465
-0.04867655 -0.049405057 0.009251086
-0.047915753 -0.048136268 0.009011345
-0.046879843 -0.04624768 0.0088721951
0.018507762 0.06212467 0.0073960209
0.020086274 0.063239329 0.0076506417
0.021456234 0.065366752 0.0087075615
0.022590641 0.066867582 0.0093591539
-0.046407968 -0.051364679 0.010131006
-0.045654152 -0.04949728 0.0092358552
-0.044977739 -0.047885552 0.0089573245
0.022206815 0.061925955 0.0074817529
0.023434535 0.06378305 0.0082925847
0.024707606 0.065768324 0.009234448
-0.045345541 -0.054416355 0.010724884
-0.044814274 -0.052840415 0.010275856
-0.043430485 -0.050886918 0.0090712085
-0.043288339 -0.049209975 0.0090294397
0.024565155 0.060854871 0.007561625
0.025703957 0.062326603 0.0080473265
0.02681409 0.064641088 0.0091769435
0.027884729 0.06608706 0.0094950926
-0.04370885 -0.055754654 0.010862936
-0.042623784 -0.053929649 0.0098371329
-0.041632611 -0.052093789 0.0091425395
0.026108593 0.060133878 0.0076144487
0.02767924 0.061250597 0.0078688869
0.029015195 0.063386932 0.0089247813
0.030214541 0.065115713 0.0095716929
-0.0414759 -0.057116676 0.010947888
-0.040381562 -0.055297326 0.0099224346
-0.039450973 -0.053755205 0.0092343753
0.029807653 0.059935179 0.0077001816
0.030988142 0.061733585 0.0084428983
0.032433387 0.063804924 0.0093881451
0.033817623 0.065135539 0.009649477
-0.039261524 -0.05865249 0.010970374
-0.038146291 -0.056676369 0.0098966891
-0.037370283 -0.055112537 0.00931588
0.032165989 0.058864091 0.0077800537
0.033308614 0.060371879 0.0081815021
0.034637745 0.062543184 0.0091529312
0.035666917 0.06422618 0.0097139897
-0.037521277 -0.059610236 0.01055851
-0.036249191 -0.057896737 0.0095258672
-0.036113895 -0.056231629 0.0093730995
0.034351863 0.057751231 0.0078573059
0.035272218 0.059261885 0.0080870586
0.036594473 0.061439812 0.0090581886
0.03757818 0.063060366 0.0097866962
-0.034940444 -0.061203003 0.010532113
-0.034203738 -0.059601322 0.0095047345
0.035636686 0.056967538 0.007906192
0.037534267 0.057915259 0.0081096832
0.038831227 0.060075454 0.0091433097
0.039808031 0.061700232 0.0098715276
-0.033065088 -0.062709793 0.011113456
-0.031759191 -0.0606515 0.0095859393
0.039824456 0.056737948 0.0080033569
0.041068051 0.058711078 0.0092283878
0.042037874 0.060340106 0.009956358
-0.031149792 -0.063878059 0.011186318
-0.029831985 -0.06182703 0.009659254
0.041952699 0.055760443 0.0080757635
0.042985328 0.057541586 0.0093013206
0.043949135 0.059174292 0.010029064
-0.028915314 -0.065241009 0.011271338
-0.027583564 -0.063198499 0.0097447671
0.044201124 0.054388981 0.0081612775
0.045222096 0.056177236 0.0093864277
0.046178982 0.057814162 0.010113895
-0.026680842 -0.066603974 0.011356329
-0.025332434 -0.064539611 0.010051908
-0.024229378 -0.063480787 0.0098252306
0.046316769 0.052898187 0.0091047715
0.047410138 0.054752421 0.009638832
0.048408825 0.056454029 0.010198726
-0.025734132 -0.069293015 0.01194911
-0.024765046 -0.067759931 0.011512241
-0.023405483 -0.065667786 0.01045747
-0.022623388 -0.064460389 0.0098863002
0.048279446 0.051813994 0.0093193678
0.049326509 0.053583514 0.0097117294
0.050320093 0.055288218 0.010271432
-0.023504291 -0.070653148 0.012033925
-0.022531196 -0.069097295 0.011763341
-0.021162495 -0.067020334 0.010653605
-0.020374965 -0.065831855 0.009971858
0.050475508 0.05029859 0.0089072883
0.051652033 0.052323271 0.0095041553
0.052896686 0.05406639 0.010360094
0.054867178 0.055575505 0.010362587
-0.021593014 -0.071818963 0.012106647
-0.0204964 -0.070738792 0.012101593
-0.019121397 -0.06864471 0.011158301
-0.017930418 -0.066882037 0.010053078
0.052859396 0.04893136 0.0084953886
0.053929616 0.051002111 0.0094638979
0.05527873 0.053372547 0.0095298896
-0.019222222 -0.071516 0.012150078
-0.017855216 -0.06932313 0.011871004
0.052981596 0.046387702 0.0085660508
0.053882714 0.047910094 0.0087950872
0.055209097 0.050221667 0.0095125604
-0.0019243482 -0.075322479 0.010626621
-0.00094364298 -0.073716119 0.010604988
3.701216e-05 -0.072109722 0.010583353
0.061917476 0.032035261 0.011145175
0.06308452 0.033947013 0.01111943
0.06431365 0.035602253 0.011101891
-0.001788095 -0.076113574 0.011984858
0.0005294882 -0.074263297 0.011151931
0.0018295241 -0.072505288 0.010744081
0.003140993 -0.071357578 0.010630709
0.0029073625 -0.07540679 0.012623907
0.0040053553 -0.073492356 0.011434284
0.0053019589 -0.071989834 0.010694603
0.0049129967 -0.07609307 0.012797025
0.0060269395 -0.074718639 0.012339779
0.0073194397 -0.072971575 0.011320568
0.0084309038 -0.07171832 0.010755333
0.068077005 0.025654547 0.011449649
0.068731032 0.027441964 0.011416069
0.0700785 0.029506015 0.01139018
0.0064702341 -0.076693125 0.012846907
0.0080426196 -0.075708807 0.012854765
0.009481282 -0.074234001 0.012012786
0.010603168 -0.072568402 0.010936462
0.069450572 0.021775773 0.010582604
0.069744997 0.024028072 0.010528806
0.070932575 0.026458364 0.010739778
0.072003894 0.028506495 0.011458754
0.073100455 0.029586699 0.0114537
0.010185692 -0.076335818 0.012918117
0.011632416 -0.075489067 0.012704558
0.012980908 -0.073269896 0.011295947
0.014713759 -0.071655937 0.010890245
0.070853785 0.020605473 0.0096438089
0.071901217 0.022707762 0.010110646
0.073136002 0.025074141 0.010908061
0.074233733 0.02714636 0.011543584
0.013854127 -0.076532863 0.013003112
0.015100145 -0.074699141 0.012337972
0.01650364 -0.072430454 0.011283356
0.017901152 -0.071248613 0.010948601
0.07173387 0.017752098 0.010239505
0.072519802 0.019327838 0.010047722
0.073658764 0.021442784 0.010599593
0.075202547 0.023613621 0.011408954
0.075991832 0.025490958 0.011626053
0.015600985 -0.079638973 0.013124124
0.016298113 -0.078190193 0.013100552
0.017330654 -0.075775415 0.012844016
0.018635193 -0.073685817 0.012030329
0.019811211 -0.07188987 0.011280148
0.021005193 -0.070496492 0.010995959
0.072546214 0.014395227 0.010346901
0.073253281 0.015983408 0.010547216
0.074497797 0.01781895 0.010798109
0.075762078 0.02000371 0.01101732
0.077331766 0.022195771 0.011743269
0.01933337 -0.077105656 0.01313752
0.020714791 -0.074894503 0.012997226
0.021957293 -0.07298971 0.012083913
0.023269953 -0.070927702 0.01125683
0.025143845 -0.069493651 0.011059095
0.073570721 0.010313707 0.0099780168
0.074081399 0.012353742 0.0099345455
0.075316146 0.014421255 0.010306359
0.076837309 0.016521476 0.010983699
0.077757262 0.01864115 0.011665615
0.079243094 0.021029931 0.011815974
0.022924805 -0.076235436 0.013192314
0.024107799 -0.074337833 0.013083908
0.025370961 -0.072183549 0.01221354
0.026881568 -0.069961861 0.011220586
0.028247882 -0.068741538 0.011106453
0.074270435 0.0076088607 0.010065526
0.075153053 0.0090546021 0.010046077
0.07641834 0.011130569 0.010290934
0.077541091 0.013326776 0.010984358
0.078892179 0.015390624 0.011558871
0.02759243 -0.073335074 0.012615875
0.028957076 -0.071202919 0.012104903
0.030075522 -0.069354258 0.011262634
0.031351913 -0.067989424 0.011153809
0.076002635 0.0057929433 0.010151739
0.077228174 0.0076147406 0.010546589
0.078355312 0.0097571472 0.011097495
0.079687215 0.012102787 0.011664075
0.02974705 -0.074624583 0.012569829
0.031128773 -0.072517991 0.012493
0.032214537 -0.070478037 0.011966822
0.03360809 -0.068422675 0.011414553
0.035407212 -0.066641785 0.011205959
0.036750764 -0.065403715 0.011202048
0.076761864 0.00013686022 0.01031945
0.077019267 0.0020563367 0.010373786
0.077763341 0.0043012393 0.010630115
0.079273313 0.0062902509 0.011573979
0.080262922 0.0084691811 0.012073922
0.081723772 0.010771437 0.01214416
0.034391973 -0.071864121 0.013157937
0.035772543 -0.069734186 0.012630695
0.037113268 -0.067391053 0.011818939
0.038459077 -0.065674134 0.011246423
0.039771378 -0.064306781 0.01123836
0.077167422 -0.0030499352 0.010413437
0.077654444 -0.0012894097 0.010376984
0.078814641 0.00085632107 0.011191494
0.080169015 0.0030757484 0.01206598
0.081090748 0.0052787433 0.012277254
0.081954926 0.0075695585 0.012234793
0.03791048 -0.070845604 0.013296961
0.039135713 -0.068629406 0.012757662
0.04045837 -0.066796683 0.012153708
0.041948251 -0.064616248 0.011669192
0.04340788 -0.062586114 0.011271403
0.044527844 -0.061329238 0.01126214
0.076693662 -0.0086397789 0.0105526
0.077299647 -0.0070694 0.010523798
0.078392401 -0.0048365849 0.010754685
0.079612821 -0.0027303763 0.011458681
0.080600709 -0.00061970763 0.011995486
0.082000323 0.0015172884 0.012397592
0.041217323 -0.069902547 0.013420596
0.04244405 -0.068023175 0.013174639
0.043975681 -0.065875761 0.012539067
0.045161601 -0.063507035 0.012001206
0.046430133 -0.061625026 0.011644921
0.048031062 -0.059609145 0.011446227
0.049914405 -0.05756028 0.011278472
0.051216278 -0.056149811 0.011269053
0.076321296 -0.015026319 0.01071526
0.077062607 -0.012656663 0.010668018
0.077837475 -0.010276969 0.010788008
0.079023622 -0.008183076 0.011258109
0.080339752 -0.0061193039 0.011565068
0.081588663 -0.0039186934 0.012283829
0.082842909 -0.0017174312 0.012502383
0.084328525 -1.9129969e-09 0.012488763
0.04740908 -0.06492351 0.013171918
0.04865095 -0.063041486 0.012898452
0.050072283 -0.060828574 0.012682577
0.051315758 -0.058467217 0.012000232
0.052592821 -0.056578271 0.011643938
0.054120153 -0.054570153 0.011289936
0.056085445 -0.052506167 0.011277449
0.05686998 -0.051221061 0.011260155
0.073149011 -0.024555042 0.010901068
0.074129716 -0.022948682 0.010879419
0.075181432 -0.020503819 0.010836939
0.076362506 -0.018027617 0.010796412
0.077427588 -0.016062383 0.011067181
0.078510664 -0.013808487 0.011367003
0.07999251 -0.011702105 0.011888691
0.081191495 -0.0096156234 0.012143998
0.082349569 -0.0075382576 0.012647287
0.052095868 -0.062108263 0.013448658
0.053242959 -0.059720684 0.013076228
0.05451826 -0.057841599 0.012720215
0.05601304 -0.055643152 0.01229784
0.057497203 -0.053433888 0.01191664
0.058755312 -0.051530793 0.011642936
0.060073186 -0.049554527 0.011593123
0.061245516 -0.047423288 0.011253747
0.06279093 -0.045132581 0.011226087
0.063967705 -0.043204904 0.011200129
0.06566187 -0.041151907 0.011182046
0.067034818 -0.038902972 0.011151749
0.068211585 -0.036975298 0.011125791
0.069584534 -0.034726366 0.011095525
0.070894927 -0.032218825 0.011056966
0.071813032 -0.030353829 0.011027071
0.072976694 -0.027856978 0.010985597
0.074457698 -0.025862055 0.011214568
0.075705707 -0.023820397 0.011508771
0.076835066 -0.021514369 0.011543117
0.078197412 -0.019430621 0.011874382
0.079292916 -0.017157869 0.012104255
0.080583505 -0.015039725 0.01230917
0.057925303 -0.056909714 0.013352997
0.059447411 -0.054722108 0.012855067
0.060694225 -0.052825026 0.012609106
0.06213861 -0.050604913 0.012358806
0.063273855 -0.048185971 0.012068621
0.064447016 -0.046264272 0.01204276
0.065836377 -0.044217121 0.011982529
0.067099817 -0.04192042 0.011662657
0.068451241 -0.039866202 0.011708592
0.069833264 -0.037893806 0.011493475
0.071087167 -0.035599537 0.011351633
0.072431348 -0.033455051 0.011456928
0.073720954 -0.031313837 0.011694563
0.074894264 -0.029021943 0.011751114
0.076397173 -0.027248606 0.012044278
0.077764444 -0.025008965 0.012014125
0.078990251 -0.022782801 0.012314756
-0.05572186 0.013150903 0.006091373
-0.05492916 0.015070793 0.0060572727
-0.053763017 0.017395373 0.0060204687
-0.052821919 0.019351246 0.0059886426
-0.051765844 0.021806203 0.0059459489
-0.050233133 0.023881894 0.0059237918
-0.048560541 0.025606619 0.005914012
-0.047459763 0.028255684 0.0058671124
-0.04644838 0.030516544 0.0058286572
-0.045214586 0.032339875 0.0058067245
-0.043762505 0.034191061 0.0057888106
-0.042379014 0.036325563 0.0057618013
-0.040619992 0.038251132 0.0057485485
-0.057922482 0.0051957965 0.0062562199
-0.056824565 0.0074776588 0.0062190825
-0.055766702 0.0097628776 0.0061809747
-0.054825611 0.01171875 0.0061491486
-0.053447038 0.013977004 0.0061187213
-0.052108128 0.016301321 0.0057521677
-0.050937682 0.018263012 0.0056139594
-0.049757328 0.020403927 0.0054267375
-0.048261825 0.022518357 0.0055482564
-0.046980608 0.024700571 0.0056390548
-0.045789361 0.026823718 0.0055414559
-0.044339966 0.029051531 0.0051859589
-0.043064557 0.031248543 0.0052156067
-0.041853029 0.033099793 0.0055259401
-0.040460933 0.035314593 0.00566376
-0.039070163 0.037527155 0.0058015967
-0.037804741 0.039116539 0.0057865921
-0.035864811 0.04132754 0.0057696467
-0.034289256 0.043908373 0.0057348944
-0.03330455 0.045521393 0.0057131778
-0.058610376 8.1212718e-05 0.0063780034
-0.057881109 0.0021821018 0.0063376958
-0.056829296 0.0040862528 0.0063096546
-0.0554616 0.0063579665 0.0061952658
-0.054158002 0.0087145772 0.0055769347
-0.052987117 0.01067559 0.0054387609
-0.051631466 0.012982425 0.0051842323
-0.050247166 0.015249939 0.0051536756
-0.049060658 0.017193543 0.0051275054
-0.047874101 0.019137116 0.0051013352
-0.046489853 0.021404661 0.0050708083
-0.04510555 0.023672171 0.0050402516
-0.043919042 0.025615776 0.0050140815
-0.042534791 0.027883317 0.0049835695
-0.041150495 0.030150833 0.0049530128
-0.039963983 0.032094441 0.0049268426
-0.038777426 0.034038011 0.0049006725
-0.0373725 0.036210686 0.0052066427
-0.035953317 0.038282387 0.0058491519
-0.034574691 0.040540613 0.0058187256
-0.033196069 0.042798832 0.0057883291
-0.032014433 0.044734463 0.0057622725
-0.030585617 0.046784978 0.0057385117
-0.02861215 0.048857465 0.0057259807
-0.05897573 -0.0052301092 0.0065120682
-0.058428261 -0.0031732805 0.0064689955
-0.057012033 -0.001026659 0.0062604276
-0.055831868 0.0008525186 0.0058341082
-0.054692332 0.0028414431 0.0054721981
-0.053589396 0.0051829885 0.0053501977
-0.052259132 0.0075860517 0.0053148372
-0.051203001 0.0094980439 0.0052866805
-0.050012186 0.01199472 0.0052458066
-0.048335552 0.014195057 0.005223426
-0.046846025 0.015923515 0.0052096043
-0.044492718 0.020083891 0.0051495349
-0.041652031 0.024232976 0.0051003369
-0.04026778 0.026500521 0.00506981
-0.038883481 0.028768031 0.0050392682
-0.037696976 0.030711636 0.005013098
-0.036510464 0.032655247 0.0049869278
-0.035126165 0.034922756 0.0049563861
-0.033737861 0.037166119 0.0050099669
-0.032555547 0.03918783 0.0052060774
-0.031049583 0.041284222 0.0053418325
-0.029885415 0.043408331 0.0056620603
-0.028700659 0.045812316 0.0058054561
-0.027322039 0.048070528 0.0057750745
-0.026108975 0.049876336 0.0057531437
-0.024313666 0.051548339 0.0057474636
-0.058269784 -0.0089074243 0.0066257203
-0.057756931 -0.0068589998 0.0065821083
-0.056403577 -0.0045791194 0.0063629486
-0.054964986 -0.0024146433 0.0056234645
-0.053623315 -0.00047295756 0.005500651
-0.053480022 0.0012178657 0.0054585272
-0.034243461 0.031272441 0.0050731543
-0.032859161 0.033539951 0.0050426275
-0.031474907 0.035807498 0.0050120857
-0.030288348 0.037751071 0.0049859155
-0.028904099 0.040018622 0.0049553886
-0.027607344 0.042398751 0.0050199898
-0.02662975 0.044554934 0.0052408949
-0.02508924 0.04661369 0.0053622602
-0.023882948 0.048656382 0.0057507465
-0.022650767 0.050356928 0.0058154752
-0.058399182 -0.014436459 0.0067707328
-0.057762995 -0.012266492 0.0067265527
-0.056680884 -0.010171759 0.0066940719
-0.055528712 -0.008214118 0.0064444114
-0.054239701 -0.005878171 0.0057151588
-0.052997105 -0.0036333967 0.0055987565
-0.052525647 -0.0015870564 0.0055542644
-0.030970467 0.033721581 0.0050787842
-0.029918641 0.035080504 0.0050653154
-0.028345259 0.036565844 0.0050598234
-0.026960956 0.038833361 0.0050293114
-0.025576657 0.041100871 0.0049987547
-0.024390146 0.043044485 0.0049725845
-0.023005843 0.045311995 0.0049420726
-0.021621592 0.047579542 0.0049115159
-0.020244136 0.049593337 0.0056380397
-0.018836344 0.05163854 0.0058641043
-0.017041039 0.053310543 0.0058584241
-0.057991974 -0.017636405 0.006865141
-0.057502925 -0.015868613 0.0068285223
-0.056124356 -0.01361036 0.0067980951
-0.054789104 -0.011323084 0.0064324411
-0.053677429 -0.0093324734 0.0058475053
-0.052871481 -0.0070071449 0.0056916727
-0.020738883 0.04392923 0.005028313
-0.019354587 0.046196736 0.0049977712
-0.018183272 0.048259635 0.0050450386
-0.016796697 0.050212499 0.0055177258
-0.015697729 0.05234997 0.0058132457
-0.014569283 0.054459251 0.0058814464
-0.013200466 0.056379121 0.0058598742
-0.056939732 -0.021229796 0.0069840821
-0.056426879 -0.019181371 0.0069404561
-0.055245236 -0.017245732 0.0069143847
-0.053882159 -0.014978267 0.0067583146
-0.015901068 0.046757542 0.0050578276
-0.014714564 0.048701141 0.0050316574
-0.013558865 0.051099151 0.0052594775
-0.0123079 0.053111013 0.0058832439
-0.010932967 0.055340361 0.0059369123
-0.0094002048 0.057416014 0.0059147403
-0.0080187423 0.059207644 0.0058968505
-0.0066173482 0.06023445 0.0058998661
-0.056233786 -0.024907114 0.0070977341
-0.055547811 -0.022816716 0.0070567597
-0.054169185 -0.020558488 0.0070263632
-0.052987549 -0.018622851 0.0070002908
-0.052245799 -0.016774185 0.0067668529
-0.013957926 0.045572285 0.0051317504
-0.012771422 0.047515888 0.0051055802
-0.011387115 0.049783412 0.0050750533
-0.01000843 0.052012041 0.0051565887
-0.0086704921 0.053992357 0.0059387265
-0.0072966549 0.056221455 0.0059924079
-0.0061150095 0.058157105 0.0059663365
-0.0047461917 0.060076974 0.0059447633
-0.055480275 -0.028023133 0.0071974164
-0.054835539 -0.026267061 0.0070644263
-0.053384136 -0.02416867 0.0063895034
-0.052032724 -0.021892732 0.0061078966
-0.051517803 -0.01983585 0.0060640713
-0.051026795 -0.018060764 0.006027271
-0.010659164 0.046316389 0.0051835468
-0.0091201048 0.048400611 0.0051612938
-0.0077358624 0.050668139 0.0051307669
-0.0065427311 0.052777298 0.0053146919
-0.0051431963 0.054689832 0.0057722535
-0.0041798097 0.056976691 0.0060399622
-0.0028011845 0.059234917 0.0060095359
-0.001493982 0.060651243 0.0060000857
-0.053735383 -0.031448711 0.0073269354
-0.05379137 -0.029563123 0.0072753038
-0.052714538 -0.027738985 0.0069770478
-0.051150013 -0.025543045 0.0062246798
-0.050132573 -0.023585236 0.0061944211
-0.0067394404 0.047689401 0.0052320315
-0.0054688537 0.049285334 0.0052169934
-0.0042823432 0.051228955 0.0051908223
-0.0029580391 0.053604394 0.0052330792
-0.0018717465 0.055809759 0.0055376459
-0.00054349273 0.057857797 0.006095428
0.00088729133 0.060003716 0.0060691414
0.002267946 0.061012994 0.006072172
-0.052492835 -0.032796938 0.0073899841
-0.05165749 -0.030945223 0.0073586386
-0.050564878 -0.028998468 0.0065521086
-0.049319673 -0.026780743 0.0062975492
-0.048865844 -0.024713542 0.0062521081
-0.0036097902 0.048447739 0.0052797692
-0.0023391978 0.050043695 0.005264746
-0.00095489621 0.052311219 0.0052342191
0.00042935685 0.054578763 0.0052036615
0.0017551322 0.056631647 0.0057612704
0.0030928294 0.05873891 0.0061509227
0.0043058782 0.060544703 0.006128992
0.0057073263 0.061571483 0.0061319927
-0.051440541 -0.03639036 0.0075089252
-0.050988525 -0.034331661 0.0074637132
-0.04979619 -0.032124754 0.0067635626
-0.048648033 -0.030181067 0.0064030522
-0.047809247 -0.028321736 0.0063715437
-0.00070560601 0.049225081 0.0053221202
0.00098824524 0.051125947 0.0053081419
0.0023724984 0.053393509 0.0052775852
0.0036242281 0.055542141 0.0054292623
0.0050249891 0.05742643 0.0061279191
0.0062096673 0.059494141 0.006198463
0.0074750236 0.061083551 0.0061834576
-0.049832202 -0.037924815 0.0075849062
-0.048903052 -0.035768148 0.0069846222
-0.047567528 -0.033507477 0.0065154778
-0.047052611 -0.031450596 0.0064716525
0.0027422032 0.050722927 0.005357
0.0045871297 0.052123472 0.005359699
0.0058260104 0.0539543 0.0053376704
0.0069803004 0.055986531 0.0054623457
0.0084252283 0.057966564 0.0058872094
0.0098459823 0.06037524 0.0062539289
0.011439795 0.061970927 0.0062459242
-0.048429333 -0.040883496 0.0076944996
-0.047800969 -0.039081994 0.0073264576
-0.046487078 -0.036833853 0.0066278735
-0.045996018 -0.035058793 0.0065910593
0.0070411982 0.051212583 0.0054373359
0.0080930227 0.052571509 0.0054238969
0.0092795296 0.054515105 0.0053977268
0.010663835 0.056782626 0.0053672148
0.012139183 0.059091061 0.00608797
0.013482296 0.061256349 0.0063094227
0.014592566 0.062350053 0.0063042985
-0.047080711 -0.042480905 0.0077665104
-0.045887161 -0.040272001 0.0071497299
-0.044910796 -0.038328804 0.0067020943
0.010056611 0.051627811 0.0054918081
0.011222673 0.053329851 0.0054716486
0.012606978 0.055597369 0.0054411367
0.013990544 0.057996321 0.0055071115
0.01536084 0.059873633 0.0062052822
0.016578715 0.061771043 0.0063629569
-0.046000384 -0.045242846 0.0078638373
-0.045115717 -0.043711651 0.0077420697
-0.043655392 -0.04166694 0.0068811923
-0.043644007 -0.039457146 0.0067597823
0.011727114 0.051243935 0.0055383481
0.013325684 0.052244656 0.005546378
0.014873931 0.0542146 0.0055273781
0.01625823 0.056482103 0.0054968363
0.017483423 0.058598552 0.0058003869
0.018534292 0.060831212 0.0064306045
0.019644612 0.061924882 0.0064254794
-0.043991551 -0.046955183 0.0079532908
-0.042987794 -0.045195986 0.0076551735
-0.041394219 -0.043052219 0.0069048358
0.016951805 0.053613994 0.0055885548
0.018525239 0.055099301 0.0055830618
0.019644229 0.057214014 0.0056509143
0.020734165 0.059230991 0.0063210456
0.021886803 0.060936701 0.0065006251
-0.042406879 -0.049869806 0.0080656493
-0.041941646 -0.048382647 0.0080360072
-0.040817924 -0.046491712 0.0072316444
-0.039451074 -0.044237476 0.0069787577
-0.038138442 -0.042815357 0.0069692181
0.020603064 0.054498736 0.0056442535
0.021654895 0.055857658 0.0056308145
0.022929929 0.057907496 0.0061873784
0.024262782 0.059882738 0.006580458
-0.040731449 -0.051113136 0.0081353048
-0.040014021 -0.049570799 0.0079984833
-0.038892232 -0.047690243 0.0070832083
-0.037507936 -0.045422729 0.0070526814
-0.036123678 -0.043155186 0.0070221247
-0.035395667 -0.041598748 0.0069963085
0.022159332 0.053771738 0.0056975139
0.023598036 0.054672405 0.0057047382
0.024900809 0.056786094 0.0060934434
0.026368422 0.059031043 0.0066489913
-0.038733467 -0.052553203 0.0082172267
-0.037769221 -0.050964773 0.0078621916
-0.036625221 -0.049073044 0.0071694637
-0.035240915 -0.046805523 0.0071389219
-0.033856664 -0.044537984 0.007108395
0.025912808 0.053853214 0.0057769427
0.027236681 0.055534218 0.0058233375
0.028621191 0.057777669 0.0067314655
0.029928442 0.05919395 0.0067220153
-0.036468022 -0.054124787 0.0083084917
-0.035514072 -0.052353103 0.007837127
-0.034358211 -0.050455846 0.0072556902
-0.033449285 -0.048342917 0.0072189597
-0.032237392 -0.045525689 0.0071699405
0.029516304 0.054174352 0.0058467081
0.030933144 0.056490865 0.0065659676
0.032150201 0.058192935 0.0067970725
-0.034822144 -0.0557037 0.0083864769
-0.033596065 -0.053574897 0.0074668145
-0.032873619 -0.052028235 0.0073299669
0.031657189 0.053313024 0.0059162444
0.032926947 0.055399019 0.0063883597
0.033995721 0.057155777 0.0068649119
-0.033661507 -0.058746073 0.0084930342
-0.032686669 -0.057157561 0.0082216179
-0.031334616 -0.054967474 0.0074420385
-0.03151514 -0.053079143 0.0073875831
0.0339242 0.051930226 0.0060024997
0.035189327 0.054019049 0.0064744111
0.036502559 0.055988923 0.0069505889
-0.030429102 -0.05854509 0.0082243793
-0.029273128 -0.05647894 0.0075272461
0.036159672 0.050677795 0.0060845679
0.037451655 0.052639104 0.0065604774
0.038708083 0.054724116 0.0070323562
0.040140901 0.055621091 0.0070394967
-0.028491706 -0.059726834 0.0082981065
-0.027322209 -0.057859469 0.0076065445
0.038332097 0.049686115 0.0061582765
0.039454501 0.051542673 0.0063831983
0.040643293 0.053543709 0.007105967
0.041431017 0.054834161 0.0070885764
-0.026332993 -0.061115533 0.0085155563
-0.025379064 -0.059044719 0.0076804673
0.040472988 0.048824806 0.0062278286
0.041264001 0.050120521 0.0062104017
0.042731803 0.052016519 0.0069920588
0.043688763 0.053457011 0.0071744677
-0.023985142 -0.062116854 0.0084296092
-0.023112053 -0.06042752 0.0077667246
0.041768394 0.048034642 0.0062771002
0.043367025 0.049035337 0.00628513
0.04485045 0.050587669 0.0064577889
0.045609705 0.052457146 0.0069094319
-0.021836333 -0.063302629 0.0088718915
-0.020615824 -0.061616726 0.0078527648
0.047380015 0.049946405 0.0063479701
-0.019901183 -0.064483009 0.0089455172
-0.018704157 -0.062671632 0.0079225153
0.048107974 0.0464794 0.0064564934
0.048927676 0.048113272 0.0064306362
0.050090924 0.049366925 0.0069226651
-0.017619679 -0.065579489 0.009024417
-0.016437199 -0.064054407 0.0080087855
-0.014998447 -0.063153774 0.0080159204
0.049913581 0.045177981 0.0065305447
0.051166903 0.046897572 0.0069120424
0.052053291 0.048262436 0.0072450042
-0.016483717 -0.06951911 0.0091544241
-0.015577382 -0.067583486 0.0089556025
-0.014170194 -0.065437205 0.008095012
-0.013379171 -0.064141482 0.0080775255
0.052022945 0.044447046 0.0065959087
0.052813955 0.045742761 0.006578452
-0.015277323 -0.069959819 0.009192422
-0.013619503 -0.068852641 0.0084484313
-0.012227045 -0.066622466 0.0081689348
-0.011436026 -0.065326735 0.0081514483
-0.01112269 -0.069667049 0.0082743354
-0.0099600386 -0.068005256 0.0082551911
-0.008723083 -0.066270255 0.0082356753
-0.0087382346 -0.070849314 0.0093583269
-0.0077399975 -0.069269255 0.0091154361
-0.0065065222 -0.067444459 0.0083152466
-0.0057154992 -0.066148736 0.00829776
-0.0068030306 -0.072029725 0.0094319535
-0.0058183218 -0.070416689 0.009410237
-0.004579586 -0.068595923 0.008610243
-0.0033973211 -0.066927671 0.0083690099
-0.0045453347 -0.073406838 0.0095178448
-0.0035606322 -0.07179381 0.0094961142
-0.0023654019 -0.069883183 0.009304245
-0.0012898357 -0.067781314 0.0084376307
-0.002610191 -0.074587218 0.0095914565
-0.0016254302 -0.07297422 0.0095697399
-0.00015266139 -0.071105465 0.0095517943
0.0010009611 -0.068882138 0.008829535
0.0026044585 -0.067444906 0.0085132541
0.0015627337 -0.071377017 0.0095963329
0.0030848475 -0.070108935 0.0093953917
0.0046568974 -0.06819924 0.008678128
0.0061210389 -0.067144848 0.00858167
0.0047633024 -0.07096801 0.009654968
0.0065678577 -0.069673888 0.0093260529
0.0077042314 -0.067754902 0.0086324047
0.0089730406 -0.070395797 0.0096199838
0.010067646 -0.068657115 0.0087912977
0.011757482 -0.06761919 0.0087168487
0.011155887 -0.071251623 0.0098014819
0.012235147 -0.069931827 0.0095673092
0.013563991 -0.068239503 0.0087727271
0.014971212 -0.067208499 0.0087757194
0.014054857 -0.070732437 0.0098506212
0.015406794 -0.069226049 0.0092838397
0.016746242 -0.067698464 0.0088274237
0.0174146 -0.070223756 0.009910062
0.018954115 -0.06837444 0.0092937192
0.020574227 -0.066402875 0.0088759651
0.021170806 -0.069173656 0.0098635536
0.022407835 -0.067290656 0.0091897268
0.023804858 -0.06568142 0.008926929
0.025403434 -0.064680688 0.0089348843
0.023095191 -0.069458164 0.010013047
0.024496635 -0.068431377 0.010016047
0.025841575 -0.066718645 0.0093324389
0.027282232 -0.064838804 0.0089799743
0.026212031 -0.068702929 0.010060586
0.027804071 -0.067706309 0.010068563
0.029369203 -0.065850757 0.0094526457
0.030703602 -0.063764431 0.0090255989
0.07383807 0.0049610045 0.0091263289
0.074464612 0.0063497811 0.009102812
0.031564552 -0.066655174 0.010022123
0.032772336 -0.064732 0.009596738
0.034125406 -0.062968753 0.0090787401
0.035970338 -0.061568208 0.0090813488
0.072950363 -0.00099285471 0.0082656126
0.073552199 0.0010850914 0.0082231658
0.074669316 0.0032547887 0.0088564847
0.075223327 0.0052966722 0.0091474541
0.033484664 -0.066940717 0.010171548
0.034833752 -0.065697536 0.010167637
0.036125783 -0.064122163 0.010042425
0.037683073 -0.061950322 0.0092955949
0.039237168 -0.05990915 0.0091080265
0.040745094 -0.058479145 0.0091025475
0.072385699 -0.006649951 0.0084045772
0.072968319 -0.0046555246 0.0083639622
0.074044377 -0.0023883206 0.008493498
0.075182386 -0.00020293347 0.0090712421
0.075929262 0.0016193599 0.009261121
0.037866868 -0.064596072 0.010204111
0.039687376 -0.062956646 0.010122866
0.041221969 -0.061016884 0.0097644497
0.042494524 -0.059114873 0.009407741
0.043508887 -0.057349447 0.0091324244
0.044863559 -0.056101158 0.0091284728
0.071955845 -0.011722403 0.0085308552
0.07253845 -0.0097279809 0.0084902253
0.073861271 -0.0077587748 0.0087742126
0.074964337 -0.0056717563 0.0090502417
0.075943485 -0.0035984274 0.0093175275
0.076446868 -0.0012789784 0.0093498565
0.042986423 -0.061889499 0.01024303
0.044522021 -0.060280446 0.010233381
0.045504648 -0.058312576 0.0098686125
0.046986092 -0.056085709 0.0094869127
0.048784226 -0.054047082 0.0091588134
0.050294604 -0.052301027 0.009144946
0.051804975 -0.050554972 0.0091310777
0.069207303 -0.022048902 0.0087471949
0.07019607 -0.020429235 0.0087253815
0.071256496 -0.017964182 0.0086825518
0.072249576 -0.015791433 0.0086460495
0.073154688 -0.013362922 0.0086633461
0.07433062 -0.011140772 0.0091506205
0.07564076 -0.0091711376 0.0094599379
0.076663777 -0.006724088 0.0095001422
0.047222126 -0.058938973 0.010256203
0.048764639 -0.057033706 0.010238796
0.050460678 -0.055148527 0.01011407
0.051743854 -0.053240228 0.0097574061
0.053246245 -0.051007744 0.0093413098
0.054713964 -0.048884049 0.0091496548
0.056192808 -0.047007613 0.0091316151
0.057703178 -0.045261562 0.0091177477
0.059087478 -0.042994045 0.0090872208
0.060471781 -0.040726531 0.009056679
0.061658286 -0.038782932 0.0090305088
0.063042536 -0.036515389 0.008999967
0.064426832 -0.034247875 0.0089694401
0.065096043 -0.031877592 0.008920636
0.066152178 -0.0299656 0.0088924784
0.067686453 -0.027937753 0.0088716159
0.069051094 -0.025398932 0.0088333962
0.070107229 -0.023486942 0.0088052396
0.071491525 -0.021219429 0.0087747127
0.07274469 -0.018969661 0.0090753008
0.074011639 -0.016849289 0.0093493294
0.075138666 -0.014573083 0.0095767798
0.075958207 -0.012447715 0.0096378392
0.076566726 -0.01087086 0.0096089058
0.052111454 -0.055280291 0.010264666
0.053158995 -0.053926948 0.010251245
0.054917973 -0.052001357 0.010237992
0.056601245 -0.049957454 0.010128974
0.057887264 -0.048143592 0.0099492548
0.059334531 -0.046087921 0.0097470833
0.060551465 -0.043765958 0.0095685143
0.061916444 -0.041694228 0.0096142609
0.063276552 -0.039704252 0.0094751697
0.06456425 -0.037394367 0.0092566963
0.065893635 -0.035230134 0.009444504
0.067047514 -0.033289246 0.0095010661
0.068409905 -0.031221919 0.0095468778
0.069551259 -0.028894575 0.00958094
0.070898935 -0.026829783 0.0096622342
0.071988054 -0.024585664 0.0098760547
0.073238656 -0.022122858 0.0098374067
0.074097812 -0.019990511 0.0097990539
0.075237557 -0.017881744 0.0097674569
0.076138601 -0.015922518 0.0097346595
0.06099391 -0.046530809 0.0102238
0.062175553 -0.044595167 0.010197744
0.063357189 -0.042659529 0.010171672
0.065058358 -0.040598042 0.010153526
0.066436931 -0.038339794 0.010123115
0.067618623 -0.036404181 0.010097058
0.068800263 -0.034468539 0.010070987
0.070048399 -0.03232047 0.010040679
0.071234964 -0.029755356 0.0099978978
0.072022736 -0.028464939 0.0099805212
-0.052271925 0.0050047659 0.0043829679
-0.051080555 0.0069563328 0.0043566832
-0.049952473 0.0091696959 0.0043220213
-0.049022995 0.011057825 0.0042917458
-0.047657024 0.013051685 0.0042681331
-0.052428778 0.0016410144 0.0044694804
-0.051169772 0.0038861106 0.0044368794
-0.049779847 0.0061629447 0.0044061774
-0.048588421 0.0081144823 0.0043798946
-0.051753946 -0.0040155496 0.0046353806
-0.051240008 -0.0017846874 0.0045869434
-0.050283428 0.00022082143 0.0045541264
-0.0488935 0.0024976556 0.004523485
-0.029104007 0.03405001 0.0041100187
-0.053710844 -0.011972653 0.0048055919
-0.052519478 -0.010021084 0.0047793081
-0.051735871 -0.0076932544 0.0047341073
-0.050588503 -0.0053960062 0.0046976721
-0.049198519 -0.0031191991 0.0046669701
-0.052410085 -0.012766068 0.0048550861
-0.051218715 -0.010814503 0.0048288023
-0.050027341 -0.0088629359 0.0048025185
-0.048637368 -0.006586133 0.004771892
-0.051407818 -0.015928155 0.0049613984
-0.050459005 -0.013956171 0.004929306
-0.049267631 -0.012004603 0.0049030371
-0.047916204 -0.010058301 0.0047802711
-0.050288249 -0.020012032 0.0050949054
-0.049474865 -0.017591957 0.0049812282
-0.048251487 -0.015298802 0.0043461099
-0.04706547 -0.013335626 0.0042360248
-0.04941728 -0.022849578 0.005189701
-0.048686307 -0.021286741 0.0051638288
-0.047329262 -0.018990794 0.0047983713
-0.046002194 -0.016669312 0.0040980866
-0.0069033848 0.046668798 0.0042551532
-0.048070483 -0.026126159 0.0053065801
-0.047795668 -0.02439668 0.0052663209
-0.04673522 -0.022476846 0.0052380487
-0.045414463 -0.020162299 0.004454392
-0.0050366889 0.045827761 0.0043182205
-0.0037608759 0.047430232 0.0043031042
-0.046516504 -0.027966792 0.0053895907
-0.045657765 -0.025814613 0.0052673081
-0.044525269 -0.023839345 0.0045720451
-0.043153182 -0.02154452 0.0042903433
-0.0013704865 0.046716142 0.0043742126
0.00047374639 0.048588328 0.004364186
0.0017893248 0.049698904 0.0043630833
-0.045804754 -0.03167437 0.0055041518
-0.044763971 -0.029482156 0.005468213
-0.043401945 -0.027197443 0.0051031373
-0.042263187 -0.025224779 0.0044080848
0.0022957663 0.047604486 0.0044301003
0.0034871907 0.049556024 0.0044038175
0.0048473948 0.050809443 0.0043998519
-0.045045041 -0.034816034 0.0056046704
-0.044202808 -0.032949086 0.0055730753
-0.042812884 -0.030672248 0.0055424329
-0.041448217 -0.02838916 0.0051774615
-0.040304113 -0.026419753 0.0044826148
0.0042469013 0.046414357 0.0045043202
0.0054382752 0.048365925 0.0044780364
0.0066612926 0.050186586 0.0044559417
-0.044174071 -0.037653588 0.0056994502
-0.043443099 -0.036090758 0.0056735789
-0.042251725 -0.034139186 0.0056472952
-0.040721077 -0.031848129 0.0055423481
-0.039202716 -0.029774982 0.0047630277
0.0073893615 0.047175825 0.0045522703
0.0085807843 0.049127359 0.0045259874
0.0096639507 0.050609283 0.0045098988
-0.042233404 -0.039425734 0.0057890425
-0.04116682 -0.037479207 0.0057601985
-0.039788056 -0.035401478 0.005448699
-0.038608819 -0.033162668 0.0050076069
-0.036929213 -0.031167526 0.004682905
0.010857061 0.047738906 0.0046126219
0.012272314 0.049911015 0.0045853164
0.014130992 0.051396046 0.0045859525
-0.040081918 -0.040819224 0.0058730422
-0.038890548 -0.038867664 0.0058467733
-0.037520591 -0.036595378 0.0054822722
-0.036166426 -0.034322008 0.0047838185
-0.034970138 -0.032362498 0.004757436
0.014523265 0.048627291 0.0046685543
0.015913242 0.050904095 0.0046378523
0.017233737 0.052649375 0.004619889
0.018549263 0.053759988 0.0046187863
-0.038110256 -0.041766804 0.0059412178
-0.036939412 -0.040057793 0.0059209922
-0.03556224 -0.037785497 0.0056399927
-0.034207344 -0.035516977 0.0048583494
0.017864328 0.049713992 0.0047120871
0.019055758 0.051665533 0.0046858033
0.020278776 0.053486198 0.0046636937
-0.035241544 -0.040200677 0.0059616975
-0.033374552 -0.038907956 0.0051980019
-0.031921752 -0.036911111 0.0049452884
0.021332029 0.050277084 0.0047724228
0.022747289 0.052449193 0.0047451323
0.024690351 0.053585153 0.0047569349
-0.030757459 -0.039823405 0.0040478865
0.023608308 0.048888627 0.0048589977
0.024998231 0.051165458 0.0048283702
0.026280006 0.052972626 0.0048078643
-0.032348882 -0.048035849 0.0062340535
-0.031301957 -0.04617472 0.0062070452
-0.030507693 -0.044873688 0.0061895223
-0.028499098 -0.040840909 0.0041241674
0.02694937 0.049975332 0.0049025901
0.0283393 0.05225217 0.004871903
-0.032087583 -0.051409148 0.0063299118
-0.031065986 -0.049443301 0.0062996121
-0.029676009 -0.047166489 0.006268925
-0.028484637 -0.045214929 0.0062426412
-0.027075419 -0.043098424 0.0054662284
0.028900458 0.048785236 0.00497681
0.030290436 0.051062036 0.0049461229
0.031084698 0.052363068 0.0049285861
-0.030054841 -0.053103544 0.0064194342
-0.028790886 -0.050836399 0.0063237613
-0.02740681 -0.048583016 0.0059391642
-0.026214721 -0.046633262 0.0058295606
0.031176731 0.047396779 0.0050634285
0.032566708 0.049673587 0.0050327573
0.033360973 0.050974615 0.0050151898
-0.028372444 -0.055996429 0.0065333107
-0.027903363 -0.054497037 0.006503433
-0.02651936 -0.052252918 0.0060565788
-0.025134368 -0.050015196 0.0054431679
-0.023938123 -0.04805566 0.0054167854
0.033453058 0.046008296 0.0051500043
0.03484299 0.04828513 0.0051193172
0.035899147 0.0496496 0.005105786
-0.026746498 -0.056988209 0.0065951599
-0.025952224 -0.055687167 0.0065776529
-0.024568159 -0.053473789 0.0057980781
-0.023175335 -0.051210135 0.0055176988
-0.021977905 -0.049272623 0.0051583769
0.036794115 0.047094993 0.0051935371
0.037786942 0.048721302 0.0051716259
-0.024795409 -0.058178306 0.0066693947
-0.024001142 -0.056877267 0.0066518867
-0.022611376 -0.05468348 0.0057061724
-0.021216258 -0.052405108 0.0055922298
-0.020012902 -0.050493717 0.0049002385
0.038745206 0.045904893 0.0052677719
0.039936583 0.047856461 0.0052414881
-0.022519134 -0.059566755 0.0067559844
-0.021724865 -0.058265723 0.0067385063
-0.02032695 -0.056078915 0.0057723094
-0.018930666 -0.053799246 0.0056791538
-0.017728273 -0.05186506 0.0053200694
0.041021481 0.044516448 0.0053543905
0.042212848 0.046468001 0.0053281067
0.043813862 0.047872141 0.0053253304
-0.020893184 -0.060558539 0.0068178345
-0.01944859 -0.059654176 0.0068250811
-0.018044563 -0.057452973 0.0060462719
-0.01664507 -0.055193387 0.0057661217
-0.01543883 -0.053261239 0.0054071769
0.04329776 0.043127995 0.0054409653
0.044489179 0.045079522 0.0054146815
0.045680556 0.047031093 0.0053883987
0.046871934 0.048982657 0.0053621139
-0.017497452 -0.06084431 0.006899301
-0.016091894 -0.058628533 0.0062869117
-0.014686046 -0.056388333 0.0058406536
-0.013464965 -0.054487739 0.0051493393
0.045248896 0.041937862 0.0055151852
0.046440266 0.043889429 0.0054889014
0.047425274 0.045711793 0.005461582
-0.01527183 -0.062023308 0.0069792168
-0.013817661 -0.059996817 0.0065813763
-0.01240045 -0.057782467 0.0059275907
-0.011304819 -0.055878885 0.0053547611
0.048716541 0.042500965 0.0055755358
0.050002914 0.044059824 0.0055617755
-0.012746295 -0.063295975 0.007068092
-0.011554921 -0.061344407 0.0070418678
-0.010114855 -0.059176601 0.0060145445
-0.0089988401 -0.05709127 0.0057829507
-0.0077901697 -0.054822747 0.0049481103
0.051060211 0.041179091 0.00543941
0.05218425 0.043064062 0.0056358119
0.053556368 0.044726837 0.0056211734
-0.010795211 -0.064486079 0.0071423268
-0.0096038347 -0.062534504 0.0071160877
-0.008168648 -0.060345486 0.0063104695
-0.006959537 -0.058412042 0.0060626939
-0.0055118543 -0.056197383 0.0052845124
-0.0040939762 -0.053927146 0.0050044805
0.054447938 0.042176947 0.0047081085
-0.0089707067 -0.065152586 0.0071998034
-0.0076527512 -0.063724607 0.0071903067
-0.0062182178 -0.061526064 0.0064955959
-0.0050004595 -0.059607018 0.0061372248
-0.0035468198 -0.057395995 0.0053592855
-0.0021269517 -0.055126969 0.0050793244
-0.0053139869 -0.06484215 0.0072710244
-0.0039616469 -0.062876649 0.0069143074
-0.0027149143 -0.061001122 0.0062241489
-0.0014734353 -0.058774989 0.0056913421
-0.00015993303 -0.056326788 0.0051541524
0.0010411751 -0.054359294 0.0051276563
-0.002793387 -0.065706626 0.0073488727
-0.001710223 -0.064224713 0.0073328149
-0.00044916238 -0.062367342 0.0065323161
0.00087069732 -0.059940636 0.0059164055
0.0021349264 -0.057726584 0.0052414695
0.0033360342 -0.05575908 0.0052149724
0.004792463 -0.054847371 0.0052222367
-0.0008785387 -0.066517517 0.0074121719
0.00024091508 -0.065414838 0.0074070347
0.0014866993 -0.063532747 0.0068278955
0.0029427549 -0.061322939 0.0061889524
0.0044297893 -0.059126366 0.0053287558
0.0056309439 -0.057158899 0.0053022597
0.0068113185 -0.055435918 0.005281873
0.057417635 0.028077241 0.0055665402
0.058817387 0.03053689 0.0061149346
0.060207352 0.032813691 0.0060842475
0.0024222012 -0.066410571 0.0074810553
0.0037262146 -0.064873137 0.0073015448
0.0048844418 -0.062499084 0.006429377
0.0063968613 -0.060326215 0.0054035848
0.0075979661 -0.058358721 0.0053770887
0.0087990742 -0.056391221 0.0053505925
0.0095998282 -0.055079568 0.0053329235
0.05847213 0.024747565 0.0055117086
0.059567969 0.026793674 0.0060168663
0.06109371 0.029148405 0.0062015541
0.062142476 0.031434942 0.0061631734
0.062500894 0.033646606 0.0061118165
0.0059531978 -0.066109285 0.0075497553
0.0071399477 -0.063860036 0.00676494
0.0084972689 -0.061664984 0.0060308278
0.0095649892 -0.059558541 0.0054519325
0.010766096 -0.057591047 0.0054254355
0.01194647 -0.055868059 0.0054050339
0.060491029 0.023323162 0.0059152963
0.061980009 0.025483152 0.0063187554
0.063256718 0.027707299 0.0062870597
0.00807124 -0.066843241 0.0076154117
0.0093696285 -0.065196872 0.0072660977
0.01077368 -0.062868126 0.0064671999
0.011824626 -0.060928475 0.0057878206
0.013060954 -0.058990836 0.0055127526
0.014462286 -0.05669545 0.0054818355
0.016321562 -0.054807968 0.0054717809
0.061492439 0.019952025 0.0054554148
0.062685192 0.022107333 0.0060074441
0.063931145 0.024293017 0.0063929902
0.064424179 0.026075378 0.0063560391
0.011046794 -0.066537939 0.0076719262
0.012552041 -0.064466938 0.0070655867
0.014006551 -0.06223667 0.0066206465
0.015304585 -0.060351856 0.005931423
0.016757147 -0.058095239 0.0055691367
0.01815843 -0.055799823 0.0055382187
0.018959183 -0.054488171 0.0055205366
0.063451521 0.018757064 0.0055299457
0.064647749 0.020716574 0.0055035483
0.065636791 0.022546392 0.0054761292
0.013101493 -0.067010075 0.0077292034
0.014729407 -0.065684445 0.0076624639
0.016040383 -0.063563414 0.006800401
0.017161872 -0.061472114 0.00666878
0.018682545 -0.059266761 0.0058924472
0.020125452 -0.056999642 0.0056130486
0.021305876 -0.055276684 0.005592647
0.065410599 0.017562084 0.0056044767
0.066606835 0.019521603 0.0055780802
0.066751324 0.021226279 0.0055356631
0.017135132 -0.066494614 0.0078030974
0.018240053 -0.064712062 0.0075975377
0.019404383 -0.062834337 0.0070040934
0.020853955 -0.060586888 0.0066628223
0.02212918 -0.058312371 0.0059918687
0.023293631 -0.056231998 0.0056613805
0.024579844 -0.054616429 0.0056461524
0.025951112 -0.053352758 0.0056421636
0.067353576 0.016177734 0.0056837164
0.067713529 0.018398367 0.0056321872
0.020051258 -0.065714121 0.0078456132
0.021553455 -0.064130694 0.0078359321
0.023082351 -0.06194311 0.0070602065
0.024374237 -0.059513006 0.0065002926
0.025572089 -0.057622839 0.0058314772
