# .PCD v0.7 - Point Cloud Data file format
VERSION 0.7
FIELDS x y z
SIZE 4 4 4
TYPE F F F
COUNT 1 1 1
WIDTH 1269
HEIGHT 1
VIEWPOINT 0 0 0 1 0 0 0
POINTS 1269
DATA ascii
-0.034765493 0.070344761 0.013630532
-0.033076756 0.071850359 0.013596228
-0.031621192 0.073066145 0.013565525
-0.076846048 0.021609861 0.014329199
-0.076027051 0.023474686 0.014328368
-0.074859977 0.025263892 0.014315063
-0.073227577 0.027292419 0.014289863
-0.071595229 0.029320991 0.014264709
-0.070636787 0.031223616 0.014259824
-0.069609158 0.032975014 0.014250573
-0.045589812 0.062823556 0.013880037
-0.044190638 0.064562306 0.013858454
-0.042413466 0.066474251 0.013826909
-0.040813126 0.067573451 0.013789846
-0.075551808 0.026776141 0.014358744
-0.074385807 0.028225081 0.014340764
-0.072753452 0.030253645 0.014315579
-0.071382441 0.032253873 0.014298556
-0.070091881 0.034509912 0.014287716
-0.068668589 0.036515795 0.01426907
-0.053390302 0.056687977 0.014049884
-0.048096728 0.062249701 0.013954088
-0.046748038 0.06375622 0.013930907
-0.04533476 0.065364219 0.01390706
-0.043836966 0.066187814 0.013869489
0.043475986 -0.049876947 0.0083968863
0.04464687 -0.048421942 0.0083788224
0.046286099 -0.046384923 0.0083535276
0.047691122 -0.044638887 0.0083318483
0.049587138 -0.042520907 0.0082992967
0.051260293 -0.040798947 0.0082685119
0.052665371 -0.039052952 0.0082468325
0.054162677 -0.037107181 0.0082249232
0.05565301 -0.03474474 0.0082090329
0.056823887 -0.033289731 0.0081909699
0.033656303 -0.057315946 0.008614663
0.034919266 -0.056222826 0.008588545
0.036565408 -0.054742891 0.008555281
0.03846794 -0.052895963 0.0084472625
0.04020609 -0.051061597 0.0082372352
0.041632526 -0.049322188 0.0081313848
0.043314602 -0.047298461 0.0079377471
0.044957209 -0.04525717 0.0079123825
0.046365168 -0.043507501 0.0078906622
0.048007786 -0.041466217 0.0078653423
0.049650442 -0.039424974 0.0078400066
0.0510584 -0.037675295 0.0078182863
0.052701015 -0.035634015 0.0077929357
0.054343674 -0.033592772 0.0077676149
0.055726789 -0.031840704 0.0078300769
0.057299562 -0.02979508 0.0080364197
0.058591858 -0.027519805 0.0082134195
0.059763845 -0.02572313 0.0082000671
0.061030362 -0.023536712 0.0081890561
0.02816488 -0.060567126 0.0087490957
0.029860718 -0.059055269 0.0087146396
0.031807248 -0.057263426 0.0085925031
0.033520371 -0.05527202 0.0082028015
0.034998532 -0.053563759 0.007844666
0.036691733 -0.051546123 0.0075950101
0.038100682 -0.049290854 0.0073301173
0.039551139 -0.04755152 0.0071400851
0.041185025 -0.045696761 0.0071005411
0.042667698 -0.043566294 0.006938736
0.044282705 -0.041703276 0.006983255
0.045846414 -0.039913196 0.0069185114
0.047413256 -0.037808459 0.0066348519
0.049017727 -0.035851158 0.0068263821
0.050607666 -0.033987276 0.0069551803
0.052095994 -0.031849947 0.0067932927
0.053708222 -0.029990397 0.0068378672
0.055280983 -0.028041964 0.0071137212
0.057115596 -0.026122399 0.0073916959
0.058422536 -0.024369126 0.0077069052
0.059943266 -0.022330714 0.0080746524
0.061530706 -0.020294866 0.0082177911
0.062626094 -0.018139644 0.0082119461
0.063759238 -0.016334519 0.0081999842
0.023376044 -0.062945351 0.0088726804
0.025315549 -0.061325669 0.0087408051
0.026783789 -0.059456572 0.0083927894
0.028252248 -0.057754479 0.0080348914
0.02996872 -0.055858579 0.0076882732
0.031540398 -0.053790573 0.0072704875
0.033101737 -0.052002579 0.0072057745
0.03469567 -0.050231084 0.0069858488
0.035980485 -0.04801061 0.0066668261
0.037633363 -0.045956608 0.0066413544
0.039050095 -0.044196017 0.0066194967
0.040702973 -0.042142019 0.0065939659
0.042355854 -0.04008802 0.0065684952
0.04377263 -0.03832747 0.006546637
0.045425504 -0.036273472 0.0065211207
0.047078338 -0.034219433 0.0064956499
0.048495118 -0.032458883 0.0064737923
0.050147999 -0.030404879 0.0064482614
0.051800828 -0.028350845 0.0064227907
0.053399954 -0.026566427 0.006495358
0.055053238 -0.024665413 0.0067011751
0.056615476 -0.0227216 0.0070107025
0.058162756 -0.02067863 0.0073220534
0.059755776 -0.018636625 0.007465092
0.061272606 -0.016711066 0.0078758588
0.062737018 -0.014717215 0.0080057932
0.064236462 -0.01301925 0.0082305046
0.065058865 -0.011146605 0.0082296655
0.017771441 -0.065146245 0.009025434
0.01990702 -0.063683309 0.0089759221
0.021739136 -0.062117316 0.0086042453
0.023340758 -0.060148623 0.0081789801
0.024899414 -0.057943694 0.0075582596
0.02639015 -0.056246951 0.0070883725
0.027845958 -0.054516625 0.0068424684
0.029487746 -0.052585576 0.0068156114
0.031444889 -0.050644707 0.006778596
0.032890163 -0.049148887 0.0067521026
0.034807723 -0.047066238 0.006718352
0.036460605 -0.045012239 0.0066928361
0.049447428 -0.028873609 0.0064925021
0.050628066 -0.027406471 0.0064742723
0.052016307 -0.025381155 0.0064570503
0.053385466 -0.023179289 0.0064429091
0.054764196 -0.021065718 0.0064272126
0.056303684 -0.019237272 0.0065023378
0.057733126 -0.0171386 0.0067485366
0.059209857 -0.015229924 0.0072524045
0.060940914 -0.013196827 0.007412218
0.062622882 -0.011399394 0.0077221682
0.063990109 -0.0094012264 0.0082222037
0.065188758 -0.0070720753 0.0082821073
0.066011108 -0.0051993886 0.0082812682
0.013450902 -0.066942424 0.0091418028
0.014931417 -0.065896608 0.0091079194
0.016528551 -0.064290881 0.0088051027
0.018325325 -0.062462319 0.008244154
0.019568117 -0.060404357 0.007615061
0.021287879 -0.05842071 0.0071277632
0.023088826 -0.056585476 0.0069693159
0.02492746 -0.05526134 0.0069275815
0.026437048 -0.053865664 0.0068976078
0.053827528 -0.0198279 0.0064750663
0.054868039 -0.0180545 0.0064657116
0.055974588 -0.015615825 0.0064634131
0.057434291 -0.013544437 0.0064444756
0.058918964 -0.011759719 0.0066516255
0.060344025 -0.0096517373 0.0068704234
0.062246427 -0.0079160659 0.0074660722
0.063632727 -0.0058454894 0.0078043053
0.0650822 -0.0039718165 0.0083287414
0.066137314 -0.0022637357 0.0083179902
0.0098329028 -0.067865603 0.0092473393
0.011598067 -0.066417627 0.0091096805
0.01300252 -0.064705037 0.0086039379
0.014722858 -0.062759995 0.0079701552
0.016433256 -0.060785554 0.0074621737
0.017602004 -0.05884045 0.0071174754
0.019276135 -0.057480566 0.0070816064
0.055734847 -0.011853574 0.0065236441
0.056798723 -0.010131235 0.0065127998
0.0584516 -0.0080772284 0.0064872839
0.060291618 -0.0062832953 0.0067856172
0.061788384 -0.0042722514 0.0072440943
0.063319646 -0.0022569126 0.0075764144
0.064807743 -0.00036760423 0.0080543477
0.066266067 0.001469178 0.0083657205
0.0061394577 -0.068088606 0.0093650948
0.007898719 -0.067043208 0.0091553014
0.0096099768 -0.06533622 0.0087180622
0.011058118 -0.063201629 0.0078267958
0.012773226 -0.061238468 0.0072420714
0.014440373 -0.059316847 0.0072142975
0.016193138 -0.05818953 0.0071726148
0.055862058 -0.0088934107 0.0065606683
0.056985613 -0.0068967408 0.006551696
0.058345314 -0.0046066539 0.0065390803
0.059762042 -0.0028460701 0.0065172222
0.06128668 -0.00095017964 0.0068575712
0.062793843 0.0011139765 0.0074737715
0.06451159 0.0030204714 0.0079110432
0.065863781 0.0049030636 0.0084266728
0.066546701 0.0070779887 0.0084345834
0.0029520597 -0.068079658 0.0094695026
0.0044561424 -0.067252636 0.0094317999
0.0061580921 -0.06536442 0.0084787356
0.0076267375 -0.063358851 0.0076311394
0.009191093 -0.061953854 0.0073493519
0.011099677 -0.060616191 0.0073055048
0.057644796 -0.0030754246 0.0065832902
0.058449164 -0.0015954362 0.0065775784
0.0593496 0.0004841857 0.0065770536
0.06075912 0.002614229 0.0066230921
0.062470607 0.0046897857 0.0073196739
0.064207807 0.0066305804 0.0077266041
0.065617301 0.0085793417 0.008402505
0.066528805 0.010529349 0.0084832124
0.0010220438 -0.067517869 0.0092675583
0.0024913079 -0.06587404 0.0087647978
0.0041001993 -0.063981861 0.0078879418
0.0055477484 -0.061982855 0.0074681565
0.058927286 0.0044026584 0.0066453991
0.060740471 0.006343958 0.0068632346
0.062065974 0.0082236463 0.0074535524
0.063795283 0.010126979 0.0077808448
0.065129399 0.012000108 0.0082993126
0.0661892 0.013680245 0.0085381586
-0.0043971725 -0.068875685 0.0096988818
-0.0025518236 -0.06810534 0.0094183115
-0.00090726448 -0.0664341 0.0087848185
0.00051149726 -0.064382665 0.007933069
0.0021757938 -0.062508114 0.0075711617
0.0039538718 -0.061390195 0.0075285472
0.057440042 0.006277265 0.0067201639
0.058620673 0.007744398 0.0067019491
0.060037237 0.009692397 0.0074331891
0.061605472 0.011703791 0.007660002
0.063413978 0.013664856 0.0078425594
0.064881243 0.015408836 0.0085216314
0.065618038 0.017337337 0.0086077442
-0.0075468328 -0.069216855 0.0097972015
-0.0060377182 -0.068412438 0.0096339313
-0.0043420154 -0.066659696 0.0087272795
-0.0026479745 -0.064764015 0.0078087975
-0.0012108916 -0.063154981 0.0076729977
0.00026767497 -0.061968055 0.007641105
0.056210198 0.0077511673 0.0067809029
0.056861501 0.0091609722 0.0067792162
0.05840015 0.010976911 0.006854197
0.059856016 0.013056907 0.0070083234
0.061578795 0.015200367 0.0074593695
0.063108809 0.017186414 0.0077982806
0.064370736 0.019050496 0.0085814418
0.065046869 0.020994421 0.0086773159
-0.0093063656 -0.068370983 0.0097236093
-0.0080403704 -0.067014799 0.0090935063
-0.0063590989 -0.065130249 0.0081266295
-0.0045711417 -0.06344457 0.0077789081
-0.0028701702 -0.06266509 0.0077340831
0.055808134 0.010653956 0.006834425
0.056449056 0.012491222 0.0068390477
0.057878766 0.01462821 0.0068219649
0.059647471 0.016704895 0.0068699773
0.06093891 0.01871142 0.0075124912
0.062605791 0.020703949 0.0082194963
0.063954845 0.022257436 0.0087306313
-0.014605258 -0.070247062 0.010013805
-0.013418832 -0.068946004 0.0098680258
-0.01143888 -0.067603134 0.0094466973
-0.010068116 -0.065470658 0.0085976403
-0.0084105507 -0.063654825 0.0079015931
0.056374781 0.016161699 0.006892568
0.057479307 0.018334877 0.0068866611
0.059064098 0.020231996 0.0070431302
0.060520537 0.022207396 0.0078416886
0.062156599 0.024018921 0.0085471561
0.062934384 0.025812734 0.0088134976
-0.016323978 -0.06929224 0.0090827029
-0.014884697 -0.067802586 0.0090563558
-0.013237542 -0.065775789 0.00891947
-0.011813347 -0.06415043 0.0081172166
-0.010602338 -0.062966928 0.0079828808
0.056120783 0.020009108 0.0069544055
0.057136916 0.021511998 0.006942085
0.058583412 0.023433834 0.007588563
0.060256697 0.025636958 0.0082315626
0.061686404 0.027537029 0.008878327
-0.019790297 -0.068949215 0.010201527
-0.018367114 -0.068068936 0.0096112769
-0.016928546 -0.066156775 0.0091461409
-0.015281479 -0.064234741 0.0083684521
-0.013821087 -0.062913753 0.0080889454
0.055019617 0.021282678 0.0070081535
0.055207424 0.023153657 0.0070280447
0.056680322 0.025180338 0.0071956455
0.058337912 0.02736586 0.0079223495
0.059800774 0.029139882 0.0085984664
0.060949493 0.030432375 0.0089427177
-0.021244166 -0.067778498 0.010265377
-0.020434327 -0.066650912 0.0099816713
-0.018976305 -0.064565614 0.0089017013
-0.017318709 -0.062756926 0.0082055768
0.053854682 0.024638593 0.0070929765
0.054685056 0.026871348 0.0070968587
0.05648043 0.029035296 0.0073411707
0.057930402 0.030947912 0.0080480315
0.059406202 0.032593645 0.008880347
0.059844147 0.034775373 0.0090393247
-0.023542015 -0.066167936 0.010362975
-0.0223547 -0.065050133 0.0098949606
-0.020737497 -0.063206881 0.0086447224
-0.019271163 -0.062030949 0.0082795471
0.052925888 0.028287916 0.0071741263
0.054578774 0.030341927 0.0071486551
0.056106623 0.032297682 0.0075427787
0.057687171 0.034397833 0.0085209385
0.058652785 0.035974506 0.0090949936
-0.025258331 -0.065025643 0.010435035
-0.024285521 -0.063479193 0.0096060196
-0.022737462 -0.062122673 0.0084917434
0.05162159 0.030098122 0.0072420207
0.052819617 0.03175851 0.0072259372
0.053943146 0.033755153 0.0072169197
0.055507045 0.035677876 0.0078988485
0.057020757 0.037644211 0.0088637359
0.057759963 0.039331093 0.0091709122
-0.027667044 -0.063713156 0.010532117
-0.026401227 -0.062051512 0.0092129894
-0.024971697 -0.061309133 0.0084761102
0.052596558 0.035484269 0.0072850445
0.053495288 0.037418943 0.0074493494
0.055244707 0.039380513 0.0086821467
0.056380745 0.041041203 0.0092398394
-0.031259105 -0.063550524 0.010651911
-0.029825788 -0.062408034 0.010120606
-0.028250083 -0.060559846 0.0088161565
0.051902253 0.03891547 0.0073555326
0.053362347 0.040933169 0.0084198602
0.054739054 0.042722847 0.0093169622
-0.033016607 -0.062518939 0.01072376
-0.031780954 -0.060799517 0.0099067688
-0.030314099 -0.058941424 0.0086838426
0.050091203 0.040813409 0.0074411994
0.051394232 0.042653054 0.0082371905
0.052887429 0.044220138 0.0091982447
0.053640343 0.045525864 0.0093919169
-0.035103142 -0.060873017 0.010584015
-0.033700325 -0.059143197 0.0095923487
-0.032417621 -0.057523888 0.008772417
0.048152074 0.042770568 0.0075318865
0.049410265 0.044364735 0.0080966214
0.051022209 0.045989223 0.0091201607
0.051858027 0.047280811 0.0094746593
-0.038770314 -0.060379546 0.010941796
-0.037054151 -0.059452783 0.010481628
-0.035514444 -0.05758578 0.0092064105
-0.034333222 -0.056430381 0.0088502988
0.046629045 0.044480544 0.0076054954
0.047721125 0.04585034 0.0079223737
0.04913253 0.047637146 0.0087905182
0.050111827 0.049052332 0.0095564378
-0.040492304 -0.059184738 0.011014767
-0.039107282 -0.057831306 0.01042544
-0.037563961 -0.055935409 0.0092964498
-0.036731664 -0.054547384 0.0089549776
0.045456246 0.045424961 0.0076570222
0.045521189 0.047306929 0.0076810759
0.046978354 0.049132302 0.0084092692
0.048381515 0.051068459 0.009498165
-0.042493761 -0.057860799 0.011098679
-0.041167203 -0.056213871 0.010327719
-0.039636124 -0.054313097 0.0091644581
-0.03836263 -0.052581236 0.0090357279
-0.037872225 -0.050920963 0.0090427659
0.043687519 0.049059838 0.0077654994
0.044932332 0.050779875 0.0084991762
0.046556197 0.052799873 0.009474773
-0.044486664 -0.05661568 0.011181218
-0.042946216 -0.054837398 0.010154931
-0.041406199 -0.052910898 0.009130721
-0.039989471 -0.051150315 0.0091088638
-0.038548309 -0.049119249 0.0090899561
-0.037449185 -0.047393054 0.0090780184
0.041760817 0.050611321 0.0078501189
0.043178637 0.052192025 0.0085761743
0.044809759 0.054206196 0.0095514879
0.045336802 0.056048889 0.0098100454
-0.046297956 -0.055085205 0.011261766
-0.044966541 -0.053168453 0.01043188
-0.043438748 -0.051239461 0.0093872473
-0.042041816 -0.04949766 0.009198986
-0.040377535 -0.047549542 0.0091716312
-0.038795777 -0.045663942 0.0091461577
0.039657291 0.052028853 0.0079386476
0.041132659 0.053839564 0.0086660814
0.04277223 0.055846922 0.0096409824
0.04388294 0.057219621 0.009873895
-0.048309129 -0.053177964 0.011354123
-0.04700077 -0.051516365 0.010583954
-0.045469292 -0.049569622 0.0096437121
-0.044094168 -0.047845006 0.0092891678
-0.042913567 -0.046377819 0.009270953
0.037785016 0.053893328 0.0082760444
0.039265729 0.055697739 0.0090031559
0.040773518 0.057544209 0.0095632365
0.041847546 0.058858622 0.0099633122
-0.050302085 -0.051932815 0.011436648
-0.048762716 -0.050116256 0.010577723
-0.047255665 -0.048177451 0.0094991494
-0.045839056 -0.046560813 0.0093641318
-0.04417919 -0.04506854 0.009330566
0.034608115 0.054160442 0.0081335241
0.036027659 0.055308439 0.0083532073
0.037513815 0.057108484 0.0090801101
0.039007366 0.058922492 0.0097235963
0.040102925 0.060263492 0.010039939
-0.052323341 -0.050425079 0.011523767
-0.050865371 -0.048513584 0.010251895
-0.049322449 -0.046536319 0.0094784154
-0.048377961 -0.045362592 0.0094638588
0.032848947 0.055577014 0.0082108062
0.033938896 0.056896102 0.008631262
0.03546996 0.058754284 0.0091699092
0.036924023 0.060490835 0.010022027
-0.054358739 -0.048786078 0.011613169
-0.052911397 -0.046866011 0.010341771
-0.051374797 -0.044883668 0.0095685981
-0.050430313 -0.043709949 0.0095539959
-0.048069041 -0.040775664 0.0095175812
0.031862427 0.058426332 0.0095835254
0.033290163 0.060165375 0.0099279303
0.034627113 0.061795473 0.010240422
-0.055886474 -0.047281828 0.0116841
-0.054637793 -0.045439444 0.010584881
-0.053133961 -0.04346709 0.0096458653
-0.052189477 -0.04229337 0.0096312631
-0.048769556 -0.039244432 0.009561806
-0.048940796 -0.03765583 0.0095895184
0.03007243 0.059708279 0.010360406
0.031491585 0.061323032 0.010336444
0.033229861 0.062441032 0.010295127
-0.05763267 -0.045510303 0.011765879
-0.056615271 -0.043760486 0.011069023
-0.055186309 -0.041814439 0.0097359875
-0.054241821 -0.040640716 0.00972143
-0.059124228 -0.043989502 0.011835845
-0.058442086 -0.041981831 0.011241082
-0.057238657 -0.040161788 0.0098261693
-0.05595424 -0.038415536 0.0098084435
-0.054934472 -0.03669798 0.0097989673
0.024180708 0.062066134 0.0095853563
0.025941508 0.063285187 0.010045037
0.027426124 0.064773411 0.010406306
0.028315049 0.066158913 0.010507678
-0.060282234 -0.040491454 0.0099211624
-0.058997821 -0.03874521 0.0099034365
-0.057581089 -0.036984626 0.0098815784
-0.056383021 -0.035324279 0.0098654944
0.021117352 0.060800731 0.0096679693
0.022542482 0.062422179 0.0096439226
0.024188478 0.064467713 0.0096185468
0.025718894 0.066261724 0.010260494
0.02683292 0.067592181 0.010576108
-0.061672933 -0.038767129 0.009990654
-0.060756989 -0.037328638 0.0099807037
-0.059340205 -0.035568081 0.0099588605
-0.057630297 -0.034043584 0.0099241175
0.01946575 0.06212594 0.0092401542
0.020615138 0.063974068 0.0095466292
0.022144632 0.066113524 0.009708331
0.023680666 0.067903012 0.010350038
0.024831459 0.06891612 0.01066002
-0.062145602 -0.036400151 0.010289204
-0.060749114 -0.034917127 0.010013999
0.017473049 0.064089946 0.0088323606
0.018547837 0.065545589 0.0088174269
0.020100754 0.067759387 0.0097981011
0.021608576 0.069458 0.010661842
0.022527942 0.070579208 0.010758542
0.015184605 0.065449156 0.0089261709
0.016578756 0.067146063 0.0090709254
0.018337034 0.069137387 0.0099583594
0.019846633 0.070820056 0.010849616
0.021364883 0.071515754 0.010809631
-0.066937394 -0.032267362 0.011837694
-0.065358497 -0.030592917 0.01089204
-0.064295486 -0.02906457 0.010354441
0.013161002 0.066964194 0.0097639365
0.014673517 0.068684518 0.009834582
0.01623811 0.070617542 0.010464579
0.01785367 0.072065197 0.010932156
-0.068760663 -0.030954434 0.012332544
-0.067191876 -0.028923964 0.011975916
-0.06550356 -0.027027382 0.01081302
0.011204214 0.068662934 0.010101746
0.012711159 0.070599116 0.010261308
0.014347714 0.072228312 0.010949088
0.015889024 0.073047765 0.011010115
-0.06957119 -0.029182764 0.012383713
-0.068866082 -0.027512558 0.012383889
-0.06738703 -0.025478873 0.011613313
-0.066286467 -0.023470875 0.010688012
0.0082481327 0.068876252 0.010201433
0.0094522843 0.070073664 0.0101787
0.011032704 0.07188496 0.010735909
0.012461495 0.073314041 0.011125972
-0.070507757 -0.025830902 0.012461013
-0.069358706 -0.023835037 0.012013402
-0.067899317 -0.021902658 0.010974827
-0.066698328 -0.020293936 0.010412158
0.006237356 0.069961593 0.010082199
0.0074084443 0.071719475 0.010268484
0.0089644017 0.073408931 0.011116634
0.010994744 0.074111469 0.011185046
-0.072177753 -0.023886671 0.012542701
-0.071350008 -0.022317505 0.012355516
-0.06987159 -0.020239737 0.011517376
-0.068360806 -0.018606773 0.010656788
-0.067775056 -0.01692846 0.010494216
0.0023539981 0.070219964 0.0094123539
0.0039483379 0.071282431 0.0098419357
0.0053252317 0.073184557 0.010801729
0.0066961623 0.074575588 0.011332158
-0.07327646 -0.021083649 0.012617655
-0.071772002 -0.019033356 0.012013254
-0.0702985 -0.016969999 0.011243287
-0.069165759 -0.015204136 0.010563723
0.00023412578 0.071008228 0.0094926832
0.0019726928 0.07276357 0.010377485
0.0035413443 0.074410804 0.011321913
0.004731515 0.075558148 0.011410117
-0.076876439 -0.020942301 0.012737415
-0.075311847 -0.019444643 0.012707057
-0.073702127 -0.017403919 0.012557708
-0.072247967 -0.01533723 0.011746731
-0.070725195 -0.013441107 0.010925146
-0.069609337 -0.01150226 0.010629727
-0.0030533508 0.070705712 0.009596047
-0.0018223627 0.072261371 0.010044345
-0.00011013415 0.074170582 0.011048923
0.0015870048 0.075521149 0.011512495
-0.075123914 -0.015439684 0.01275665
-0.074122116 -0.013721647 0.012525404
-0.072497703 -0.011678699 0.01143652
-0.071078822 -0.0097621093 0.010702029
-0.070538118 -0.0078529306 0.010710891
-0.0070612673 0.070628703 0.0097261257
-0.0051978636 0.071948268 0.010017039
-0.0035524725 0.07392513 0.011042692
-0.0019057397 0.075547598 0.011627142
-0.075463466 -0.012288827 0.012811597
-0.074272588 -0.010390542 0.012435186
-0.072923057 -0.0082560843 0.011783945
-0.071565412 -0.0063680001 0.010876367
-0.070880562 -0.004675772 0.010766316
-0.010237165 0.070284687 0.0098252511
-0.0086722719 0.071839169 0.010068553
-0.0069657094 0.073469058 0.010763146
-0.0053382819 0.075143576 0.011733828
-0.075710438 -0.0093404027 0.012860718
-0.074731655 -0.0068838052 0.012729447
-0.073363282 -0.0048009967 0.012013225
-0.072024509 -0.0028045231 0.011115653
-0.070867456 -0.00065657956 0.010821825
-0.014169023 0.069501676 0.0099429917
-0.012297241 0.071187973 0.010119638
-0.010621216 0.073208056 0.010941681
-0.0089994268 0.074901424 0.011766873
-0.0075119622 0.075825773 0.011814442
-0.075905889 -0.0048988294 0.012928913
-0.075200774 -0.0032286211 0.012929089
-0.073619813 -0.0011153461 0.012060077
-0.07203804 0.00079139211 0.011130436
-0.071326643 0.002775786 0.010884635
-0.070615664 0.0044599222 0.01088479
-0.019376593 0.068134047 0.010094336
-0.017439472 0.069206946 0.010045913
-0.015848141 0.070775166 0.010301529
-0.014238052 0.072583556 0.010911819
-0.012556489 0.074617162 0.011689776
-0.010961815 0.075806282 0.011927046
-0.076245442 -0.0017479693 0.012983874
-0.075710662 0.00019985456 0.012916498
-0.074329495 0.002256226 0.012405125
-0.072601087 0.0041651349 0.011501556
-0.071197771 0.0062474916 0.010928707
-0.070249707 0.0085173575 0.01092927
-0.022788635 0.06749662 0.01019712
-0.021010505 0.068614513 0.010154489
-0.019123139 0.070576303 0.010787154
-0.017760873 0.072592273 0.011437695
-0.016086558 0.074110739 0.011994165
-0.01383958 0.075406037 0.012015633
-0.077050805 0.0016181358 0.013057061
-0.075985186 0.0038705543 0.012970156
-0.074417979 0.0056968927 0.01252735
-0.072908975 0.0078130672 0.011944588
-0.071401559 0.0099436333 0.011320355
-0.070122488 0.01147752 0.010966324
-0.069411464 0.013161618 0.010966479
-0.026107781 0.066494241 0.010291771
-0.024511199 0.068115398 0.010444014
-0.022935489 0.070020609 0.010924967
-0.021047879 0.071942709 0.01160291
-0.019692272 0.073747464 0.012184057
-0.018273307 0.074660145 0.012150323
-0.076687865 0.0056420276 0.01310119
-0.075982749 0.0073122387 0.013101351
-0.074799858 0.0091039985 0.012987537
-0.073450707 0.011286803 0.01234609
-0.071685493 0.013077826 0.011623412
-0.070329256 0.015216444 0.011168056
-0.069255695 0.017678447 0.011024241
-0.068451278 0.019158395 0.011018515
-0.031280745 0.064663514 0.010435564
-0.029351266 0.066069029 0.010482927
-0.027745476 0.067823686 0.010897509
-0.026182776 0.06964279 0.011247717
-0.02458979 0.071684867 0.01206545
-0.02290348 0.07327316 0.012282526
-0.07842467 0.0094384588 0.013210841
-0.076946914 0.010733546 0.013180513
-0.075323842 0.012696383 0.013154722
-0.073763944 0.014786759 0.012799247
-0.072204866 0.01678971 0.012375851
-0.070466846 0.018849637 0.011524872
-0.069126815 0.020669131 0.011172834
-0.068028241 0.022686293 0.011053782
-0.066904694 0.024682971 0.01104478
-0.038097475 0.060481317 0.010600381
-0.036387514 0.062005788 0.010565667
-0.034634091 0.063657962 0.010631341
-0.032874517 0.065451607 0.010953503
-0.031420399 0.067618497 0.011789783
-0.029735141 0.069374219 0.012022961
-0.02821832 0.071071446 0.012425782
-0.026303977 0.072302714 0.012380283
-0.077948548 0.012412067 0.013236651
-0.077149265 0.014358137 0.013237583
-0.075720012 0.016372407 0.013218844
-0.073955372 0.018418131 0.01311259
-0.072247468 0.020288574 0.012742778
-0.070897415 0.022085736 0.012473503
-0.069543846 0.024165573 0.011981616
-0.067856148 0.026124772 0.011524851
-0.066546381 0.02816215 0.011354373
-0.065064922 0.029971456 0.011058205
-0.063705221 0.032261539 0.011045559
-0.062288493 0.03402213 0.011023716
-0.04646815 0.053681891 0.010779636
-0.044815276 0.055735894 0.01075415
-0.042869173 0.057553772 0.010715794
-0.041242152 0.059478857 0.010889445
-0.03966013 0.061260801 0.010995888
-0.038069747 0.063286774 0.011408268
-0.036279354 0.065017723 0.01187152
-0.034708589 0.066898212 0.012246534
-0.033312324 0.068813302 0.012477648
-0.031376366 0.070584446 0.012522345
-0.076883115 0.017308995 0.013269933
-0.075243883 0.019346017 0.013244638
-0.073604666 0.021383034 0.013219357
-0.072490402 0.023363207 0.013210454
-0.071141988 0.025634401 0.013197935
-0.069576621 0.027742691 0.012842504
-0.068217859 0.02954095 0.012600733
-0.066510335 0.031469453 0.011993559
-0.064845137 0.03347946 0.01156166
-0.063418418 0.0353719 0.011579784
-0.062036812 0.037322056 0.011369268
-0.060305364 0.039268833 0.011231932
-0.059089024 0.0416007 0.011024496
-0.057672288 0.043361291 0.011002652
-0.056019414 0.04541529 0.010977122
-0.054366536 0.047469288 0.01095165
-0.052898761 0.049363475 0.01103004
-0.050910003 0.051187634 0.011121194
-0.049315218 0.053021267 0.01111375
-0.047806092 0.054909177 0.011412302
-0.046041552 0.056829792 0.011238366
-0.044547927 0.058740459 0.011454331
-0.043054767 0.060688283 0.011766109
-0.041448876 0.062751539 0.012298191
-0.039771136 0.064659283 0.012631173
-0.038123537 0.066665962 0.012688582
-0.036680769 0.068061888 0.0126608
-0.035200253 0.069107704 0.012626903
-0.070665821 0.02860797 0.013223743
-0.069609277 0.030771641 0.013219275
-0.068302386 0.033076275 0.013208587
-0.066907004 0.035191476 0.01294221
-0.06550049 0.036939308 0.012920517
-0.063909367 0.039043892 0.012647567
-0.062299021 0.04113071 0.012457153
-0.060905967 0.042904656 0.012352879
-0.059156258 0.044878345 0.012215898
-0.057617303 0.046991453 0.012302153
-0.056207858 0.048742928 0.012280405
-0.054553572 0.050766598 0.012316985
-0.052880291 0.052749578 0.01247745
-0.051472336 0.05449925 0.012455701
-0.049829677 0.056540493 0.012430395
-0.048153635 0.058496058 0.01265292
-0.046726365 0.060185645 0.012796493
-0.044929277 0.061964616 0.012845826
-0.043146569 0.063996755 0.012815783
-0.041518342 0.065911844 0.012789151
-0.039577357 0.06783665 0.012752431
-0.038115758 0.069057561 0.012721607
-0.066903509 0.038047254 0.013231987
-0.058118079 0.050155673 0.01311303
-0.056478862 0.052192695 0.01308775
-0.054839686 0.054229751 0.013062456
-0.053335361 0.055758815 0.013034525
-0.051678665 0.058049574 0.013012193
-0.050156206 0.060049824 0.012990216
-0.04891587 0.061352998 0.012967768
0.027322672 -0.053104702 0.0058785877
0.028768199 -0.051549539 0.0058529493
0.030462274 -0.049806066 0.0058217682
0.03216495 -0.048142355 0.0057892092
0.033838995 -0.046212807 0.0057612923
0.035498701 -0.044150311 0.0057356954
0.037215669 -0.0426195 0.0057008015
0.038875375 -0.040557012 0.005675205
0.040535074 -0.03849452 0.0056495937
0.041957706 -0.036726695 0.0056276536
0.04338029 -0.034958828 0.0056057144
0.045039997 -0.032896336 0.005580103
0.046699695 -0.030833852 0.0055545066
0.04799892 -0.029054938 0.0055367472
0.049487598 -0.026766438 0.0055198809
0.051014449 -0.024718361 0.0054984335
0.052275497 -0.022699026 0.0054852697
0.053166624 -0.020988768 0.0054799113
0.022473928 -0.055512615 0.0060037337
0.024147751 -0.054293897 0.0059659285
0.025670839 -0.052745692 0.0059376457
0.027330544 -0.050683208 0.0059120348
0.028990248 -0.048620712 0.0058864383
0.030412832 -0.046852849 0.0058644982
0.032072533 -0.044790357 0.0058388724
0.0337548 -0.042735882 0.0057012429
0.035200674 -0.040975291 0.0055672545
0.036814574 -0.038897548 0.0057657249
0.038474277 -0.03683506 0.0057401434
0.039896861 -0.035067189 0.0057181893
0.041319489 -0.033299368 0.0056962492
0.042979147 -0.031236837 0.0056706229
0.044638854 -0.029174346 0.0056450418
0.046061482 -0.027406517 0.0056230873
0.047721189 -0.025344027 0.0055974755
0.049380887 -0.023281541 0.0055718794
0.050803475 -0.021513673 0.0055499393
0.052463174 -0.019451184 0.0055243131
0.05388692 -0.017337415 0.0055071497
0.054719575 -0.015441339 0.005506299
0.019384278 -0.056423642 0.0060921488
0.021059211 -0.054858983 0.0060591353
0.022481795 -0.053091116 0.0060371803
0.023904428 -0.051323287 0.0060152402
0.025578305 -0.049268924 0.0059056627
0.027321456 -0.047250148 0.005404192
0.028767405 -0.045488283 0.005270225
0.030495614 -0.043447178 0.0049085822
0.046022385 -0.024145458 0.0050693993
0.047458246 -0.022028489 0.0053793276
0.049037065 -0.020091267 0.0056275344
0.050696764 -0.018028777 0.0056019081
0.052356474 -0.015966283 0.005576327
0.053779054 -0.014198419 0.0055543724
0.054847315 -0.012468945 0.0055434825
0.012424735 -0.059559662 0.0062762192
0.013638922 -0.05835234 0.0062532937
0.01554974 -0.057123296 0.0062078899
0.017347146 -0.055269588 0.0061123241
0.019056974 -0.053248245 0.0057301219
0.020531701 -0.051515233 0.0053724591
0.021958647 -0.049741887 0.005350451
0.023654643 -0.047691491 0.0051358789
0.050236929 -0.014329787 0.0053605544
0.051718209 -0.012538918 0.0056448923
0.053377915 -0.010476425 0.0056192814
0.054813553 -0.0083306199 0.0056021833
0.055871423 -0.0061719674 0.0055975951
0.057028256 -0.0044328803 0.0055839391
0.0087997047 -0.060848851 0.006376883
0.010546962 -0.059371859 0.0063402774
0.012195533 -0.057432827 0.0063133375
0.013631496 -0.055678908 0.0061795572
0.01537372 -0.053692445 0.0055109248
0.017072028 -0.05165286 0.0052335872
0.018500462 -0.049877718 0.0052115507
0.05138512 -0.0088015869 0.0054576285
0.052976817 -0.0067544761 0.0056842193
0.054399397 -0.0049866182 0.0056622652
0.055821985 -0.0032187437 0.0056403256
0.057269096 -0.0011792842 0.005621356
0.058315504 0.0010857284 0.0056186244
0.0058668894 -0.061076883 0.0064696767
0.0071097105 -0.060135398 0.006442125
0.0087947659 -0.058106788 0.006165049
0.010512524 -0.056111775 0.0056085056
0.011965265 -0.05436654 0.0053629233
0.013631792 -0.052295562 0.0053372164
0.015298323 -0.05022458 0.0053114947
0.052632984 -0.0035642069 0.0057398602
0.054055572 -0.0017963372 0.0057179201
0.055715278 0.00026615945 0.0056922939
0.057374984 0.0023286468 0.0056667128
0.058028985 0.0037442788 0.0056649968
0.0023834568 -0.061185248 0.0065821512
0.0039063278 -0.060347881 0.006543966
0.0052813273 -0.058572829 0.0064236252
0.0067951512 -0.056537617 0.0055644154
0.0084674824 -0.054475341 0.005475862
0.0098959617 -0.052700233 0.0054538259
0.011562491 -0.050629251 0.0054281191
0.052202906 -6.2113904e-05 0.0050522019
0.053759765 0.0018551674 0.0054448396
0.055608571 0.0037510579 0.0057442929
0.056794032 0.0052242922 0.0057259952
-0.0018303888 -0.06200029 0.0067086807
0.00016928231 -0.06059752 0.0066627762
0.0018714655 -0.058844447 0.0064646918
0.0032150198 -0.057139847 0.0058835153
0.0047316514 -0.054880012 0.0055924719
0.0063981824 -0.052809034 0.0055667502
0.007826617 -0.051033888 0.0055447137
0.051817603 0.0034150332 0.0049631028
0.053392585 0.00526194 0.005504258
0.054970305 0.0071784174 0.0058128582
0.055389863 0.0091065578 0.0058259722
-0.0050194329 -0.06234571 0.0068082153
-0.0035203823 -0.061286833 0.0067739226
-0.0018369382 -0.059283335 0.0063297953
-0.00013706385 -0.057297818 0.0057181083
0.0012914145 -0.055522718 0.0056960713
0.0029579506 -0.053451732 0.0056703798
0.0046244771 -0.051380754 0.0056446586
0.051502034 0.0068918043 0.0050051506
0.05297149 0.0088682249 0.0056794216
0.054451015 0.010863123 0.0058811335
0.055402979 0.013142387 0.0058816923
-0.0082466388 -0.062336687 0.0069139339
-0.0067094271 -0.061632257 0.0068734572
-0.0054390971 -0.059703536 0.0064038904
-0.0038728921 -0.057702485 0.0058347322
-0.0022063639 -0.055631511 0.0058090258
-0.00077792985 -0.053856365 0.0057869893
0.0010159388 -0.052131705 0.0057522934
0.051122669 0.010639852 0.0049863369
0.052645821 0.012416768 0.0056759068
0.054462459 0.01438531 0.0059297811
0.055436961 0.016319772 0.0059248228
0.05624466 0.017805863 0.0059190495
-0.010379614 -0.06167116 0.0069929915
-0.008763493 -0.06000866 0.0067130923
-0.0075417184 -0.058246985 0.0060472367
-0.0059421947 -0.056036185 0.00592562
-0.0042756642 -0.053965207 0.0058998987
-0.0028988258 -0.052427121 0.0058762468
0.049053367 0.012306155 0.0050772093
0.050880138 0.014168039 0.0053512263
0.052281752 0.01602139 0.0059469067
0.053824242 0.017812636 0.005998346
0.055034239 0.019557474 0.0059830481
-0.013942088 -0.061877739 0.0071066753
-0.012488315 -0.060399845 0.0069128955
-0.010810911 -0.058453992 0.0060512717
-0.0093824277 -0.056678884 0.0060292347
-0.0077158962 -0.054607905 0.0060035279
-0.0060493671 -0.052536923 0.0059778066
-0.0048014368 -0.051591557 0.0059501007
0.048708145 0.015509537 0.0051330808
0.050351668 0.01756613 0.0051913206
0.051793784 0.019492015 0.0059769573
0.053423103 0.021534625 0.0060632695
0.054019794 0.023481982 0.0060708369
-0.017454147 -0.061720259 0.0072237765
-0.015916938 -0.061015829 0.0071832999
-0.014253192 -0.05902382 0.0066562663
-0.012584616 -0.057025716 0.0061291801
-0.011156132 -0.055250604 0.0061071431
-0.0094896015 -0.053179625 0.0060814517
-0.0077847098 -0.051464584 0.0060494933
0.048600972 0.019008802 0.0051852968
0.050236948 0.021059161 0.0052714669
0.051748011 0.023021495 0.0058052335
0.053080387 0.025070842 0.0061236862
-0.019423306 -0.060911488 0.007299473
-0.017977783 -0.059356328 0.0072738053
-0.016286585 -0.057632834 0.0068575945
-0.014318173 -0.055413067 0.0062083304
-0.012929833 -0.05382232 0.0061850511
-0.011247981 -0.05225125 0.0061518867
0.046531629 0.020675151 0.0052761999
0.048198208 0.022746095 0.0052504931
0.049626637 0.024521228 0.0052284566
0.051174931 0.026316425 0.0052797389
0.051614001 0.027930563 0.0054609748
-0.022922006 -0.060878083 0.0074144034
-0.021461211 -0.059464693 0.0073862947
-0.020038631 -0.05769683 0.0073643401
-0.019090192 -0.05651829 0.0073496988
0.046128862 0.024412438 0.0053413659
0.047557332 0.02618753 0.0053193294
0.048985772 0.027962677 0.005297293
0.050368216 0.02983658 0.0055783167
0.051688228 0.032643009 0.0062746075
-0.025893079 -0.060751602 0.0075133811
-0.024650253 -0.059810117 0.0074858293
-0.023231115 -0.058057297 0.0073525812
-0.021704456 -0.056111686 0.0067131864
-0.020544672 -0.054480266 0.0066751745
0.045783635 0.027615819 0.0053972378
0.04728112 0.029486872 0.005474343
0.048774637 0.031396318 0.0059887497
0.050510574 0.033591285 0.0063263373
0.051815964 0.035615392 0.0063117906
-0.027365051 -0.059566282 0.0075780358
-0.026416671 -0.058387712 0.0075634243
-0.025192924 -0.056489564 0.0068220617
-0.02366123 -0.054444596 0.006527524
-0.021994699 -0.052373614 0.0065018171
-0.021929236 -0.050476063 0.0065260455
0.04371433 0.029282123 0.0054881549
0.045142774 0.031057274 0.0054661185
0.046727922 0.033055086 0.0057547232
0.048513144 0.035193622 0.0062138718
0.050403867 0.037076186 0.0063783363
0.050763436 0.038728908 0.0063895602
-0.029425895 -0.05790678 0.0076685557
-0.028477509 -0.056728203 0.0076539298
-0.027317215 -0.054977387 0.0068398351
-0.025730524 -0.052778281 0.0066184262
-0.024063993 -0.050707303 0.0065927049
-0.023111708 -0.049523879 0.0065779793
0.043073472 0.032723576 0.0055570062
0.044740006 0.034794562 0.0055312999
0.046593659 0.036863562 0.0055994894
0.048180774 0.038632762 0.0061391713
0.049209628 0.040174365 0.0064605279
-0.031794194 -0.056388177 0.0077671893
-0.030538352 -0.055068702 0.0077444646
-0.029170761 -0.053420987 0.0067220265
-0.027504232 -0.051350009 0.0066963341
-0.025837703 -0.049279027 0.0066706128
0.041862223 0.033942711 0.0056135724
0.042966299 0.036222838 0.0056092227
0.044632826 0.038293816 0.0055834865
0.046235062 0.040297821 0.0058091143
0.047467679 0.041868381 0.0065410784
-0.033741698 -0.055281229 0.0078463051
-0.032334704 -0.053699277 0.0073775407
-0.030944465 -0.051992707 0.0067999344
-0.029277934 -0.049921725 0.006774243
-0.027849499 -0.048146583 0.0067521762
0.041430686 0.037946951 0.0056834156
0.042813078 0.040149227 0.0056688301
0.044287562 0.041497245 0.0056393729
0.045763761 0.043359239 0.0063674282
-0.035664793 -0.053765748 0.0079303235
-0.034402881 -0.052043673 0.0074126869
-0.033013809 -0.050326362 0.006890852
-0.031289734 -0.048789285 0.0068558212
-0.029270019 -0.047490273 0.0068077804
0.039324034 0.039731987 0.0057772277
0.040789824 0.041388407 0.0057523116
0.04218686 0.043266084 0.0058866572
0.043828025 0.045055218 0.0063709798
0.044531502 0.046660587 0.0067038359
-0.037140355 -0.052018419 0.0080029108
-0.036426459 -0.050327297 0.0080030998
-0.035055883 -0.048627179 0.0073148184
-0.03383518 -0.047714692 0.0069540199
0.037292048 0.04127961 0.0058652363
0.038846083 0.043210987 0.0063415496
0.040394083 0.045136604 0.0068180263
0.041816711 0.04690443 0.0067960713
0.042837005 0.04841356 0.006783687
-0.037366979 -0.049084377 0.0080511579
-0.036418542 -0.047905836 0.0080365315
0.035651773 0.042722329 0.0059389779
0.037075419 0.044636499 0.0064193262
0.038627677 0.046559017 0.0068956064
0.040050257 0.04832688 0.0068736668
0.041306131 0.049646303 0.006850942
-0.040662728 -0.045944896 0.0082026767
-0.039714292 -0.044766359 0.0081880502
-0.038765904 -0.043587781 0.0081734238
0.033963539 0.044609964 0.0060204701
0.035002403 0.046163142 0.0060850838
0.036427859 0.048019867 0.0063721389
0.037800521 0.049928881 0.006826614
0.038937841 0.05116491 0.0069495453
-0.042077437 -0.04529126 0.0082580633
-0.040864751 -0.044095561 0.0075202822
-0.03945189 -0.043191824 0.0072007379
0.033519763 0.047892727 0.0060806535
0.034236621 0.049590796 0.0060808621
0.035796333 0.051505271 0.0065567731
0.036876995 0.052824415 0.0070400657
-0.045855261 -0.045162581 0.0083834631
-0.044284876 -0.043799613 0.0081009017
-0.042654071 -0.043538649 0.0073006833
0.030919386 0.050311737 0.0061993953
0.03246291 0.051019073 0.0061587701
0.034009509 0.052904192 0.0067180665
0.035699401 0.053772669 0.0070917951
-0.047564413 -0.044271857 0.0084517896
-0.046344526 -0.043117661 0.0084279515
0.029312368 0.050909262 0.0062603299
0.030689206 0.052447353 0.006236678
0.032009389 0.054508347 0.0070226388
-0.049625244 -0.04261234 0.0085423244
-0.048705496 -0.041167933 0.0085323099
0.027890995 0.052360293 0.0063270051
0.028743822 0.054102521 0.0063233827
0.029982818 0.056205139 0.0065429891
0.031539503 0.057446152 0.0072790193
-0.051391661 -0.041189939 0.0086199194
-0.050101932 -0.039436486 0.0086020986
-0.04960946 -0.037769385 0.0086091887
0.027617989 0.055895589 0.0063851238
0.028570276 0.057079013 0.006370428
-0.053158078 -0.039767537 0.0086974995
-0.051735491 -0.037999664 0.0086755594
-0.050549984 -0.036526464 0.0086572617
-0.054476406 -0.038511723 0.0087581128
-0.053384703 -0.036833495 0.0087457318
-0.059160803 -0.033962689 0.0089746714
-0.05794666 -0.032755323 0.0089517469
-0.057263978 -0.031605572 0.0089454185
-0.062589541 -0.035409939 0.0090667186
-0.061402563 -0.033475462 0.0090548042
-0.059684437 -0.031598754 0.0090247001
-0.058385212 -0.029819844 0.0090069557
-0.057581738 -0.027659373 0.0090107424
-0.063404948 -0.032001786 0.0091408314
-0.061745245 -0.029939303 0.0091152349
-0.060322654 -0.028171431 0.0090932949
-0.058900069 -0.026403563 0.0090713557
-0.05795164 -0.025225028 0.0090566995
-0.063157372 -0.028478455 0.0091817509
-0.062089063 -0.02674902 0.0091708899
-0.060666479 -0.024981154 0.0091489358
-0.059480973 -0.023507955 0.0091306372
-0.064149909 -0.025089523 0.0092613958
-0.062727332 -0.023321657 0.0092394557
-0.061368026 -0.021288911 0.0091462815
-0.06550207 -0.023353271 0.0093298014
-0.064788125 -0.021662191 0.0093299905
-0.063161016 -0.019595867 0.0091387192
-0.061966505 -0.017960062 0.0085386829
-0.065845892 -0.020163 0.0093854414
-0.064961284 -0.018168272 0.009050726
-0.063834563 -0.016341656 0.0083721858
0.0021633119 0.066641703 0.0073675257
0.0036391402 0.067835242 0.0074609527
0.005173868 0.069301933 0.0077062771
-0.06646017 -0.016625462 0.0094547849
-0.065181293 -0.014657849 0.0085508786
-0.06422583 -0.012711136 0.0084355082
-0.0010388268 0.066294841 0.007467485
0.00052444515 0.067263 0.0075409957
0.0022358662 0.068831526 0.0081233718
0.0038721284 0.069690309 0.0083546732
-0.067972615 -0.014565915 0.009532921
-0.067114182 -0.013021635 0.009276161
-0.065827601 -0.011216574 0.008592126
-0.065217271 -0.0095237037 0.0085122893
-0.0050415243 0.065861277 0.0075924122
-0.0030262254 0.067128591 0.0076275282
-0.0012555178 0.068745509 0.0081090545
0.00036001904 0.069847822 0.0084717898
-0.068768911 -0.011335004 0.0096039334
-0.067770958 -0.0095855072 0.0092620868
-0.066366628 -0.0075122425 0.0085779363
-0.065648809 -0.0055194581 0.0085821329
-0.0079192985 0.065009438 0.0076747444
-0.0065026996 0.066659771 0.0079848869
-0.0048580533 0.068568759 0.0083745597
-0.0033761067 0.070088618 0.0085973889
-0.069826685 -0.0098358123 0.0096594002
-0.069334209 -0.0081687095 0.0096664894
-0.067949221 -0.0060703815 0.0089833019
-0.066488527 -0.0039900439 0.0086309211
-0.065994032 -0.0023160763 0.0086380038
-0.011255006 0.065362193 0.008789408
-0.0097149946 0.06610737 0.0086381966
-0.0082951728 0.067834452 0.0087269768
-0.00668904 0.069562405 0.0086984718
-0.070170507 -0.0066455361 0.0097150551
-0.069598645 -0.0044238507 0.00965029
-0.068315126 -0.0023543569 0.0092137447
-0.066833794 -0.00078661769 0.008686793
-0.066339307 0.00088734733 0.0086938906
-0.014323622 0.064315751 0.0078746043
-0.013324849 0.066273607 0.0088698175
-0.011778607 0.067726076 0.0088394368
-0.010232403 0.069178596 0.008809071
-0.0085244253 0.069961317 0.0087640658
-0.070628956 -0.0023918285 0.0097892471
-0.070033379 -0.0007904137 0.0097920382
-0.0686597 0.00084250746 0.0092695085
-0.067282371 0.0029747502 0.0088252937
-0.0662947 0.0054832986 0.0087563787
-0.020850906 0.062258381 0.0080595445
-0.018854236 0.063770972 0.0080152955
-0.017162671 0.065504842 0.0083176065
-0.01546304 0.067239061 0.0087992512
-0.01358102 0.068983249 0.0089159179
-0.070258848 0.0024895235 0.0098450622
-0.06898924 0.004533336 0.0096651819
-0.067481868 0.0066884425 0.0089232065
-0.066314414 0.0085290456 0.0087994356
-0.065716401 0.010137065 0.0088022165
-0.025243476 0.060432289 0.0081778551
-0.023738271 0.06149552 0.0081434213
-0.022271477 0.062914722 0.0081151929
-0.020600105 0.06489335 0.0083382037
-0.018925309 0.066683054 0.0090587595
-0.017464481 0.068096392 0.0090306206
-0.069922671 0.0060224184 0.0098832306
-0.06913054 0.0081522986 0.0098869558
-0.06802021 0.010061264 0.0094602443
-0.066433601 0.011935543 0.0089341421
-0.065347441 0.014228042 0.0088470774
-0.028407255 0.05972949 0.0082715936
-0.026916454 0.060926218 0.0082394974
-0.025633711 0.062696576 0.0084950654
-0.024076603 0.064602278 0.0089481929
-0.022371542 0.066456422 0.0091683576
-0.020615319 0.067396492 0.0091239717
-0.069284178 0.011739728 0.0099418908
-0.067997351 0.013658707 0.0096405912
-0.066534273 0.015673118 0.0091562103
-0.065383941 0.017572874 0.0088948477
-0.06447611 0.019669726 0.0088943094
-0.063426979 0.021457765 0.00888485
-0.035810146 0.055776853 0.0084588174
-0.034288041 0.057184029 0.0084286015
-0.032600097 0.058555171 0.00839247
-0.030634061 0.060366027 0.0084158918
-0.028943615 0.06228045 0.0088249808
-0.027723294 0.063991092 0.0092090899
-0.026114022 0.065673821 0.0092799179
-0.069036566 0.015263016 0.0099828243
-0.068203911 0.017159093 0.0099819591
-0.067063414 0.019017465 0.0097481497
-0.065707594 0.020848222 0.0093957055
-0.064133301 0.023001665 0.0089294882
-0.062703721 0.025124149 0.0089122346
-0.061488274 0.027015073 0.0088987676
-0.059962995 0.02939483 0.0088819526
-0.058296461 0.031465806 0.0088562462
-0.042345352 0.051288031 0.008610175
-0.04115501 0.052767329 0.0085918093
-0.039430935 0.054304406 0.0085568074
-0.037468761 0.056137331 0.008518151
-0.035793018 0.058170307 0.0086027654
-0.034205783 0.060020722 0.0091021573
-0.032443561 0.061865374 0.0093339588
-0.030963702 0.063630834 0.0094101755
-0.029203709 0.064762831 0.009368334
-0.067957766 0.020221118 0.010016525
-0.067066684 0.021931415 0.010011167
-0.06575267 0.024387358 0.0099253766
-0.064385176 0.026581906 0.0097379796
-0.063009344 0.028405258 0.0094681894
-0.061381396 0.030514453 0.0092566684
-0.059728518 0.032597136 0.0091690281
-0.058198318 0.034205124 0.008991261
-0.056622017 0.035968244 0.0088641513
-0.055251081 0.03827725 0.0088514248
-0.05358455 0.040348228 0.0088257026
-0.052156113 0.042123374 0.0088036666
-0.050489582 0.044194356 0.0087779751
-0.048823051 0.046265338 0.0087522529
-0.047394577 0.048040442 0.0087302169
-0.0456849 0.049711015 0.0086975396
-0.044168931 0.051835012 0.0088776331
-0.042595502 0.053849887 0.0089875814
-0.041010231 0.055818669 0.009229931
-0.039230369 0.05769372 0.00936714
-0.037651625 0.059329223 0.0095691523
-0.035709497 0.061099552 0.0095302342
-0.033578217 0.062944174 0.0094861658
-0.065333925 0.028305182 0.010043167
-0.064385541 0.029483756 0.01002854
-0.063020222 0.031783309 0.010015869
-0.061418943 0.034031574 0.0099947499
-0.060007326 0.03577625 0.0097909085
-0.058418997 0.037714653 0.009747725
-0.056699999 0.039713297 0.0094576022
-0.055275891 0.041640539 0.0093993358
-0.053850338 0.043412 0.0093773557
-0.052187242 0.045478757 0.0093517043
-0.050524101 0.047545478 0.0093260221
-0.049087401 0.049291704 0.0093866969
-0.047503397 0.051279325 0.0095793242
-0.045738876 0.053066589 0.0096036429
-0.044289287 0.055059992 0.0097269062
-0.042595208 0.056803465 0.0096957544
-0.041149683 0.058358632 0.0096700871
-0.058090553 0.04092399 0.0099817654
-0.056667928 0.042691827 0.0099598253
-0.055245344 0.044459689 0.0099378712
-0.053585634 0.046522174 0.0099122748
-0.051925931 0.048584666 0.0098866634
-0.050740421 0.050057873 0.0098683797
-0.0026131263 -0.051471956 0.0048795464
-0.0084227724 -0.050383851 0.0050847819
-0.013866592 -0.052690908 0.0052307937
-0.011614018 -0.050955463 0.0051812343
-0.010165256 -0.049307097 0.0051567894
-0.016249157 -0.053220168 0.0053013801
-0.015053892 -0.051734831 0.0052829902
-0.013380535 -0.049655359 0.0052571441
-0.011946204 -0.047872979 0.0052350257
-0.020058088 -0.053090394 0.0054278178
-0.018508201 -0.052380193 0.0053869989
-0.016834842 -0.050300717 0.0053612264
-0.01516149 -0.048221253 0.0053353794
-0.020461619 -0.050718181 0.0054740692
-0.018912641 -0.048627563 0.0054524969
-0.017239926 -0.046555284 0.0053431713
-0.022424774 -0.048736796 0.0055658408
-0.020990442 -0.046954416 0.0055437526
-0.019324811 -0.044920992 0.0049616033
-0.024444798 -0.047599737 0.0056477757
-0.022778416 -0.0455411 0.0053716977
-0.021119911 -0.043519694 0.0045950902
0.041081704 0.034558661 0.0046470561
-0.027752487 -0.047090288 0.0057630786
-0.026522595 -0.045926582 0.0057390761
-0.024874199 -0.043901339 0.0050253267
-0.02320621 -0.041839696 0.0046867286
0.040489648 0.037609134 0.004708881
0.042918008 0.039150573 0.0046508675
-0.031507533 -0.047460839 0.0058807824
-0.030034676 -0.046035845 0.0058524348
-0.02861185 -0.04427097 0.0056080311
-0.026972651 -0.042247705 0.0048042787
0.037377942 0.037736963 0.0048124883
0.038334128 0.038925238 0.0047977231
-0.033404939 -0.046455141 0.0059568933
-0.031823017 -0.044610504 0.0058195726
-0.030434523 -0.042886686 0.0050198734
-0.028760888 -0.040807713 0.0048828279
0.035596985 0.03917107 0.0048907092
0.036553182 0.040359356 0.004875944
-0.035871595 -0.047210425 0.0060270596
-0.035290256 -0.045267839 0.0057849251
-0.033653129 -0.04322733 0.0052315923
-0.032229315 -0.04145569 0.0049873195
-0.030549135 -0.039367732 0.004961377
0.033815995 0.040605228 0.0049689459
0.034743309 0.042061523 0.004958848
-0.037285637 -0.04342204 0.0052023516
-0.03575575 -0.041565388 0.0051011578
-0.034315612 -0.039775692 0.0050789425
-0.032635428 -0.03768773 0.0050530154
0.031738199 0.042278383 0.0050602453
0.032958183 0.044037525 0.0050447909
-0.041453518 -0.043205131 0.0062654368
-0.039457306 -0.041808065 0.0057647135
-0.03784205 -0.039885394 0.0051928111
-0.036401868 -0.038095735 0.0051705958
-0.034721684 -0.036007773 0.0051446687
0.029660389 0.043951523 0.005151486
0.031094726 0.04573391 0.0051293527
0.032450225 0.047688581 0.0051122028
-0.044110768 -0.043625474 0.0056794425
-0.04257388 -0.04212112 0.0056167096
-0.041070431 -0.040235102 0.0052935746
-0.039630298 -0.038445409 0.0052713598
-0.038190108 -0.036655746 0.005249145
0.02787945 0.045385651 0.0052297078
0.029313732 0.047168065 0.0052075889
0.030975904 0.049123019 0.0051804241
-0.045875538 -0.042313561 0.00442127
-0.044325344 -0.040599991 0.0051726531
-0.042858675 -0.038795121 0.0053721238
-0.041418534 -0.037005417 0.005349909
-0.039978355 -0.035215762 0.0053276937
0.026098495 0.046819761 0.0053079436
0.027532773 0.048602171 0.0052858107
0.028798971 0.049932472 0.0052628811
-0.047057971 -0.041484788 0.0044714827
