# .PCD v0.7 - Point Cloud Data file format
VERSION 0.7
FIELDS x y z
SIZE 4 4 4
TYPE F F F
COUNT 1 1 1
WIDTH 1279
HEIGHT 1
VIEWPOINT 0 0 0 1 0 0 0
POINTS 1279
DATA ascii
-0.0032374528 0.088003926 0.015840851
-0.0056801969 0.088777818 0.016259033
0.056680072 0.070624761 0.015990065
0.054146335 0.071510985 0.015742889
0.052004773 0.072438471 0.015616631
0.050342519 0.073519103 0.015616974
0.047663674 0.074660882 0.015597556
0.0087366458 0.087828919 0.015201749
0.0072309906 0.088024095 0.015176011
0.0049958751 0.088269718 0.015136345
0.0026226647 0.088883415 0.015661918
0.048238501 0.076304302 0.01599806
0.045698229 0.077194951 0.015750881
0.043300632 0.078492887 0.015631495
0.041185025 0.07920853 0.015609932
0.039069425 0.079924174 0.015588459
0.036530696 0.08078295 0.015562655
0.033991978 0.081641719 0.015536821
0.031651083 0.082527839 0.01551614
0.029480543 0.083639078 0.015506588
0.027364938 0.084354714 0.015485085
0.024826229 0.085213542 0.015459252
-0.010895523 -0.074681208 0.0083825272
-0.013018481 -0.073963009 0.0083609419
-0.015709421 -0.0735256 0.0083178785
-0.01825699 -0.072663821 0.0082919635
-0.020379961 -0.07194569 0.0082703773
-0.022502935 -0.071227551 0.0082487911
-0.025050489 -0.070365727 0.0082229059
-0.027314082 -0.069363624 0.008207744
-0.030002249 -0.068217844 0.0081882542
-0.032125227 -0.067499705 0.008166668
-0.033823602 -0.066925198 0.0081494115
0.0022779673 -0.076300301 0.0086107254
-0.00055359665 -0.075578928 0.0085740564
-0.0029605424 -0.075001121 0.008541747
-0.005599672 -0.074100398 0.008242243
-0.0076819332 -0.073514894 0.0082398476
-0.0098422877 -0.072858572 0.008048581
-0.012430396 -0.072057858 0.0078530153
-0.01502129 -0.071256451 0.0076573901
-0.017319376 -0.070599444 0.0077134394
-0.019333033 -0.069699399 0.0075485664
-0.021832496 -0.068952419 0.0075881397
-0.024386689 -0.068088375 0.0075621717
-0.026940884 -0.067224339 0.0075362027
-0.029283939 -0.066463798 0.0078615667
-0.031267252 -0.065503687 0.0076508578
-0.033678241 -0.064832695 0.0077216146
-0.036179464 -0.063912146 0.0078654606
-0.038458746 -0.062933907 0.0079603922
-0.040471442 -0.06211713 0.0079666777
-0.042729028 -0.061075591 0.0081530903
0.011630086 -0.076626807 0.0088000512
0.0096477317 -0.076192632 0.0087720407
0.0070580086 -0.075755708 0.0087311231
0.0049744169 -0.075321093 0.0087009659
0.0028139073 -0.074687317 0.008453358
0.00020536256 -0.073951341 0.0080883633
-0.0023674783 -0.073129952 0.0079494249
-0.0048424136 -0.071966104 0.0076014996
-0.0069727604 -0.071245469 0.0075798603
-0.0091031007 -0.070524827 0.0075581912
-0.0115184 -0.069944985 0.0075257621
-0.014359784 -0.069221072 0.0074889748
-0.016490126 -0.068500429 0.0074673058
-0.018620471 -0.067779794 0.0074456669
-0.021176882 -0.066915035 0.00741967
-0.023733296 -0.066050269 0.0073936735
-0.026145842 -0.064759694 0.0073849005
-0.028276181 -0.064039052 0.0073632319
-0.030406533 -0.063318424 0.0073415926
-0.032962922 -0.062453602 0.0073155966
-0.035519335 -0.061588831 0.0072895996
-0.03764968 -0.0608682 0.0072679305
-0.039914846 -0.060346931 0.0074869846
-0.042299211 -0.059524149 0.0077690445
-0.044703085 -0.058516357 0.0081958603
-0.047107279 -0.057230238 0.0081871236
-0.049370848 -0.056228086 0.0081719626
-0.051209833 -0.055369552 0.0081611006
0.019283842 -0.07637874 0.0089721195
0.017300941 -0.076086223 0.0089393882
0.015175741 -0.07593479 0.0088989194
0.013008754 -0.075344115 0.0085385758
0.010426373 -0.074566215 0.0082867406
0.0078574643 -0.073745057 0.0081478087
0.0056765215 -0.073151924 0.007787277
0.0035461937 -0.072431222 0.0077656088
0.001029286 -0.071851023 0.0077310018
-0.0018543747 -0.071553342 0.0076791677
-0.0044107866 -0.070688576 0.0076531712
-0.035513777 -0.060167197 0.0073369439
-0.037264168 -0.059258804 0.0073296423
-0.039203145 -0.058088824 0.0073270011
-0.041617069 -0.057153646 0.0073064147
-0.044173487 -0.056288883 0.0072804177
-0.0466539 -0.055353399 0.007480789
-0.048997302 -0.054505426 0.0078618731
-0.050888039 -0.053512909 0.0080866907
-0.052980665 -0.052608937 0.0082149059
-0.054595545 -0.051387161 0.008220939
0.022404911 -0.075543106 0.009066659
0.020357598 -0.075077727 0.0088715376
0.018094894 -0.074317679 0.0084591173
0.015913276 -0.073767737 0.0079859216
0.013822436 -0.073331654 0.0079556722
0.011082645 -0.072608165 0.0079210615
0.0086678853 -0.071886219 0.0078933574
0.0062520187 -0.071448579 0.0078561725
0.0049738116 -0.071016207 0.0078431889
-0.041893709 -0.05516205 0.0073666545
-0.043597985 -0.054585543 0.0073493132
-0.04620973 -0.053322464 0.0073353527
-0.047997005 -0.052148506 0.0073360954
-0.050087865 -0.051394064 0.0074275988
-0.052387401 -0.050517824 0.0079217823
-0.054816086 -0.049799398 0.0082689421
-0.056569595 -0.048827931 0.0082636792
0.026377937 -0.074286349 0.0091934605
0.023939423 -0.073833972 0.0088226814
0.021464245 -0.073030069 0.0084021604
0.018904069 -0.072644249 0.0080872755
-0.047847573 -0.050301041 0.0074006636
-0.049644072 -0.049060706 0.0074034315
-0.051927071 -0.048120148 0.0074858568
-0.054367419 -0.047447685 0.0077728732
-0.056765307 -0.046637852 0.0080592744
-0.058908328 -0.045605473 0.0080982558
-0.061183114 -0.044745386 0.0083005615
0.031343509 -0.072892554 0.0093460381
0.029347559 -0.072756521 0.0091410633
0.027323388 -0.072272509 0.0086133899
0.024880676 -0.071676634 0.0082473382
0.022890868 -0.071383186 0.0082144802
-0.051671091 -0.046160664 0.0074563706
-0.053717639 -0.044790491 0.0074580759
-0.055644028 -0.043867696 0.007447511
-0.05804158 -0.043327704 0.0075960625
-0.060335815 -0.042441621 0.0078493012
-0.062399905 -0.04181191 0.0083719576
-0.064190179 -0.040575843 0.0083746994
0.0345142 -0.071443237 0.0094620595
0.032319132 -0.071461871 0.0090808645
0.03030251 -0.070773996 0.008593495
0.028440863 -0.070413604 0.0083654886
-0.055494614 -0.042020284 0.0075120484
-0.057339989 -0.041158807 0.00750117
-0.059611436 -0.040153194 0.0074859643
-0.062092498 -0.039568175 0.0080082854
-0.064323887 -0.038520984 0.0084400717
-0.066302083 -0.037024286 0.0084474664
0.038109489 -0.070137545 0.0095823798
0.035730876 -0.069775596 0.0092098787
0.033209268 -0.06929826 0.0085045956
0.031146701 -0.06943091 0.0084560532
-0.059235133 -0.038477357 0.0075496724
-0.061448459 -0.037159219 0.0075460877
-0.06391561 -0.03623848 0.0077462574
-0.066198096 -0.035210408 0.0083987303
-0.067943446 -0.033947129 0.0085145338
0.040855609 -0.068544544 0.0096940724
0.03899882 -0.068174377 0.0092913434
0.036746483 -0.067845583 0.008628564
-0.061345149 -0.034979872 0.007620695
-0.063284129 -0.033809956 0.0076180529
-0.065437257 -0.033044532 0.0077403607
-0.067391351 -0.032168914 0.0082995063
0.043968853 -0.066468485 0.0093292799
0.042242244 -0.066758171 0.0094828289
0.040184285 -0.066334397 0.0088952966
-0.063418299 -0.031747941 0.0076836734
-0.064551502 -0.03060537 0.007697395
-0.06690257 -0.029910522 0.0081705218
-0.069057278 -0.028841846 0.0086602839
0.047386698 -0.065457851 0.0099363914
0.044964697 -0.065310493 0.0092639541
0.04268384 -0.064792693 0.0088570556
-0.064259335 -0.028616454 0.0077697053
-0.066065863 -0.027682528 0.0079050101
-0.068330027 -0.026896492 0.0083651673
-0.070085831 -0.026098063 0.0087294187
0.050227098 -0.063912578 0.01004853
0.048307963 -0.063835412 0.0093845157
0.045815736 -0.063954182 0.0089519471
-0.065860294 -0.025860533 0.0078269728
-0.067656785 -0.024620205 0.0078297406
-0.069838777 -0.023572056 0.0087074013
-0.071582712 -0.022313295 0.0088231042
0.053825133 -0.061898567 0.010192454
0.051652089 -0.061944015 0.0096996436
0.049664218 -0.061697293 0.0091093015
-0.067362368 -0.022062602 0.0079209832
-0.069209732 -0.021135034 0.0082458286
-0.071479753 -0.020141423 0.0088974293
-0.072891392 -0.018718207 0.0089144995
0.054922659 -0.060303792 0.0098936167
0.052704833 -0.05995794 0.0092321597
-0.067070186 -0.020073634 0.0079933237
-0.06848672 -0.018645484 0.0080104303
-0.070707075 -0.017806316 0.0086162668
-0.073111944 -0.017130442 0.0089625325
0.05776244 -0.058712091 0.010215788
0.056134738 -0.058450691 0.0094985962
-0.068383411 -0.016466074 0.0080850385
-0.069957852 -0.015525525 0.0082255248
-0.072156504 -0.01491804 0.0087485053
-0.074148588 -0.014037214 0.0090430714
0.059193134 -0.056777284 0.010102156
0.057363972 -0.05647273 0.0094476677
-0.069604397 -0.013522403 0.0081566721
-0.071606763 -0.012634821 0.0084769111
-0.073694728 -0.011735532 0.0089863129
-0.074986711 -0.0109166 0.0091287959
0.06172169 -0.054478966 0.010407758
0.059840132 -0.054647595 0.0098472396
-0.070730031 -0.010430258 0.0082353186
-0.072809488 -0.0094564669 0.0086678872
-0.074740373 -0.0083203791 0.0092203291
0.066993214 -0.052797828 0.010776612
0.065022215 -0.052439783 0.010496134
0.062485751 -0.05241305 0.010025715
0.060650855 -0.052365102 0.0096544707
-0.070722103 -0.0083993785 0.0083029438
-0.072281107 -0.0070415987 0.0083146701
-0.074354947 -0.0059935302 0.0090834489
-0.075670414 -0.0045382008 0.0093260519
0.067754209 -0.051479015 0.010836691
0.065756813 -0.050782625 0.010191579
0.063929401 -0.050389912 0.0097902436
-0.072415255 -0.004979582 0.0083802911
-0.073783226 -0.0035361103 0.0085101435
-0.075664878 -0.0031214615 0.009373229
0.073522106 -0.050277784 0.011000048
0.068705834 -0.049729358 0.010915197
0.066674396 -0.048793789 0.010330901
-0.073728487 -0.0013720817 0.0084720049
-0.075518452 -0.00089808356 0.0091166236
-0.076784223 0.00056713761 0.009471803
0.072399437 -0.047439158 0.011070329
0.069849655 -0.0471441 0.01102556
0.067427918 -0.046709802 0.0099873673
-0.073532954 0.00014344041 0.008526532
-0.074900478 0.0015849785 0.0086563369
-0.076776326 0.0025910034 0.0095391814
0.073054224 -0.0456612 0.011143391
0.070731305 -0.044690657 0.010792308
0.068674326 -0.04435565 0.010092237
-0.074512325 0.004270697 0.0086426847
-0.076297335 0.0050743767 0.0094095655
-0.077611297 0.0065211817 0.0096518807
0.073125154 -0.043050688 0.011231632
0.071470991 -0.042290207 0.010596017
0.069648229 -0.042597309 0.010171507
-0.073934056 0.0066848276 0.0087352367
-0.075542897 0.0074409801 0.0091011869
-0.077416435 0.0080314949 0.0097062066
0.073842026 -0.04092893 0.011317465
0.072876044 -0.04006147 0.010753752
-0.07484439 0.0096430788 0.0089808004
-0.07691554 0.010341587 0.0094087385
-0.079293087 0.011345799 0.0097761238
-0.080566868 0.011776681 0.0097631961
0.075491421 -0.03855985 0.011306378
0.074074976 -0.03792629 0.010421415
-0.07419683 0.012230449 0.0089138504
-0.076316707 0.012800994 0.0094878636
-0.078548655 0.013269081 0.0098559447
-0.080417976 0.013617717 0.0098275207
0.076301202 -0.036287393 0.011148976
0.074794345 -0.035797134 0.010507534
-0.073477454 0.014359606 0.0089999698
-0.075386621 0.01511557 0.0094845612
-0.077434734 0.015445743 0.0099520888
0.076890849 -0.033554073 0.011127301
0.075657584 -0.033242151 0.010610878
-0.072758093 0.016488766 0.0090860892
-0.074524894 0.017666148 0.0095877387
0.077619307 -0.031167651 0.011122067
0.076376945 -0.031112995 0.010696997
-0.073989891 0.020060966 0.0094007663
-0.075714245 0.020537961 0.010158082
0.07848525 -0.029387908 0.011133008
-0.073584653 0.02234209 0.0096917087
-0.074997358 0.022659775 0.010243914
0.079376064 -0.027857061 0.010869352
-0.073045179 0.024461953 0.0095949657
-0.074044123 0.025428843 0.010022732
0.081666932 -0.023887061 0.011050276
-0.072503828 0.026455954 0.0099229859
-0.073051602 0.0277959 0.010055887
0.081906594 -0.021514166 0.011634598
-0.072397918 0.030086229 0.010117341
0.082263201 -0.019608 0.011538728
-0.070135102 0.032683346 0.0096801808
-0.071604379 0.032599233 0.0099795014
0.083282635 -0.018588282 0.012261644
-0.069559619 0.034386627 0.0097490763
-0.071158551 0.034682717 0.010475244
0.083497509 -0.01399989 0.011918255
-0.068555281 0.036656629 0.009845986
-0.070262283 0.037088998 0.010490964
0.084072016 -0.012299489 0.011987031
0.082851194 -0.011950737 0.011472129
-0.067730673 0.039137725 0.010196216
-0.069226012 0.039352324 0.010671754
0.084876359 -0.0096702538 0.012591989
0.083288364 -0.0092516318 0.011571145
-0.066976115 0.04161872 0.010378183
-0.068402119 0.042180121 0.011033499
0.085593231 -0.0075484961 0.012677821
0.084101796 -0.0073124557 0.011652955
-0.066257589 0.043745395 0.010464186
-0.067828625 0.043877527 0.011102153
0.085598774 -0.0061317547 0.012724998
0.085009277 -0.0055633197 0.011730487
-0.065539069 0.045872066 0.01055022
-0.064639904 0.048285693 0.010566257
-0.066280834 0.048769504 0.011047618
0.085889176 0.0012565375 0.011975861
-0.062936537 0.050506637 0.010593078
0.086616024 0.0026799259 0.012610571
0.085330337 0.0038180773 0.012048967
-0.061753955 0.052661996 0.011023609
0.087199837 0.0046751285 0.013118244
0.085479744 0.0056654876 0.012113535
0.087493047 0.0071766549 0.013207595
0.085719071 0.0079816347 0.012640407
0.084356517 0.0093669193 0.012212463
-0.058376398 0.057650007 0.01076119
-0.060506739 0.058370642 0.010739521
0.086540647 0.010561763 0.013077251
0.084648691 0.011355891 0.012284773
-0.055796642 0.058998812 0.011028003
-0.057786472 0.059062976 0.011487951
-0.060682047 0.059428498 0.011771685
0.086807683 0.013130065 0.01339069
0.084916539 0.013930232 0.012598422
0.083526574 0.015341642 0.012393152
-0.054602332 0.061138175 0.011513811
-0.056425028 0.060825583 0.01190921
0.087098859 0.015112128 0.013462782
0.085708044 0.015954884 0.013260847
0.084251486 0.016686991 0.012786938
-0.054715578 0.063084491 0.012020851
0.086117357 0.017808393 0.013531327
0.084612459 0.018781075 0.01308662
0.083261028 0.020176468 0.01254808
-0.050524443 0.065432824 0.011187781
-0.052654788 0.066153459 0.011166141
0.085139006 0.021314222 0.013626849
0.083364338 0.022355817 0.012622687
-0.047580693 0.066651314 0.01129129
-0.049754176 0.067074768 0.011814801
-0.052408937 0.06750109 0.011883361
0.085290283 0.023762438 0.013711406
0.083771855 0.024748102 0.013378079
0.082051128 0.02596337 0.012714402
-0.044531301 0.068466306 0.011583625
-0.046459079 0.068683729 0.01200826
-0.048363138 0.06881649 0.012347216
0.083838247 0.026933169 0.013785652
0.082107961 0.028154377 0.013217292
0.080737911 0.02957093 0.012806146
-0.040929515 0.070411712 0.011558557
-0.043265477 0.070477739 0.012056615
-0.045617022 0.070409499 0.012458908
0.082196869 0.030010268 0.013852719
0.080498487 0.030584782 0.013835462
-0.038837902 0.071918443 0.01165338
-0.040525846 0.072005838 0.012120539
-0.042209201 0.072093837 0.012587804
0.080472372 0.034405693 0.012961043
-0.037802156 0.073650077 0.011933208
-0.039085381 0.073637791 0.012705947
0.081037104 0.035446387 0.014008468
0.079504944 0.036885839 0.013451625
0.077927038 0.038113695 0.013029734
-0.033988398 0.075592384 0.011879203
-0.035911325 0.0754622 0.01243422
0.080198973 0.038567066 0.014094193
0.078439116 0.039807357 0.013764171
0.076706059 0.041057423 0.013101399
-0.030893374 0.07722275 0.012142577
-0.033041634 0.077252485 0.012526495
-0.034820087 0.077159941 0.012914252
0.078557611 0.041644163 0.01416129
0.076620698 0.042798929 0.013657801
0.075105086 0.043813281 0.013158665
-0.028005997 0.078442097 0.01235209
-0.030136283 0.078745306 0.012733592
0.076537602 0.044534173 0.014214029
0.074929632 0.045857016 0.013723192
0.073031947 0.047045209 0.013221644
-0.022879539 0.079806089 0.012256975
-0.024908904 0.079654023 0.012333559
-0.02701292 0.079887778 0.013005182
-0.029140389 0.079967231 0.01312906
0.074898988 0.048319642 0.014304699
0.073092349 0.049198776 0.013850456
0.071338773 0.050464947 0.01329899
0.070014462 0.051229268 0.013296047
-0.019271772 0.081116281 0.012377698
-0.021427466 0.081303716 0.012713094
-0.023559978 0.081547111 0.013300994
0.075997278 0.051336914 0.014428464
0.073920257 0.051724277 0.014396848
0.07183215 0.052470438 0.013876554
0.069871888 0.053283527 0.013486329
0.067610249 0.054652292 0.013358304
-0.015805727 0.082552709 0.012642577
-0.017976388 0.082574539 0.013025737
-0.019964684 0.082852796 0.013421315
0.07265754 0.054988585 0.014478274
0.070534565 0.055706728 0.014456687
0.068005875 0.056591544 0.014098372
0.065617889 0.057556409 0.013662285
0.063360654 0.058936801 0.013409655
-0.010064191 0.08401192 0.012670961
-0.012730253 0.084195696 0.013048938
-0.014936213 0.084239319 0.013289077
0.071108058 0.057404127 0.014525342
0.068560489 0.058265898 0.014499427
0.065872319 0.059411678 0.014479967
0.063622229 0.060441975 0.014132412
0.061520837 0.061219919 0.013446121
0.059960436 0.062222257 0.013446003
-0.0048019625 0.084129803 0.012787522
-0.007176877 0.084533304 0.012950266
-0.0094915098 0.085174568 0.013389041
-0.011450683 0.085646972 0.013696364
0.063614272 0.061830521 0.014511982
0.062060371 0.063112706 0.014521314
0.060092431 0.064014509 0.014064342
0.057753798 0.065121986 0.013638048
0.055284791 0.066650942 0.013493026
0.0024523078 0.084522873 0.012955843
0.00046306581 0.084958531 0.01292774
-0.0019081819 0.085256875 0.013458766
-0.0040275352 0.085132256 0.013437883
-0.0061597866 0.085669786 0.013810398
-0.0081421407 0.086103961 0.013782388
0.060228582 0.065812968 0.014571792
0.058050476 0.066928059 0.014562199
0.055645265 0.068071611 0.014262764
0.05372531 0.069016434 0.014038587
0.051978678 0.069923021 0.014031366
0.04947203 0.071226977 0.013520631
0.010984768 0.084483504 0.013137175
0.0089955237 0.084919162 0.013109073
0.0064413981 0.085307986 0.013353232
0.0039712475 0.085840434 0.013588116
0.0014945174 0.086059518 0.013987157
-0.0004883855 0.086352021 0.013954426
0.052172352 0.071375318 0.01458413
0.049569648 0.072634041 0.014570207
0.047215108 0.073566541 0.014217246
0.04488799 0.075109601 0.014123368
0.042814042 0.076056145 0.013788713
0.040676784 0.07681191 0.013517883
0.038120367 0.077676676 0.013491886
0.035563953 0.078541435 0.013465889
0.033433627 0.07926213 0.01344425
0.031303279 0.079982765 0.013422581
0.02889074 0.08127334 0.013413808
0.026334329 0.082138106 0.013387812
0.023492388 0.082719862 0.013346329
0.0215037 0.083297685 0.013322952
0.019373355 0.08401832 0.013301283
0.016816961 0.084883146 0.013275287
0.014046127 0.085464567 0.013235283
0.01175491 0.086190887 0.013585652
0.0096751768 0.086597256 0.013894188
0.0074499012 0.086882092 0.014141969
0.0054669948 0.087174602 0.014109238
0.043266926 0.077224925 0.014587809
0.041143954 0.077943064 0.014566223
0.038596384 0.078804828 0.014540338
0.036048833 0.079666652 0.014514423
0.03350126 0.080528423 0.014488508
0.031378295 0.081246562 0.014466922
0.029398693 0.082389042 0.014462514
0.026851127 0.083250821 0.014436599
0.02430357 0.084112644 0.014410715
0.021899378 0.085398756 0.014401978
0.019839214 0.086057395 0.013664909
-0.0067415712 -0.070333958 0.0066142711
-0.008879289 -0.069610834 0.0065925489
-0.011731067 -0.069027089 0.0065508829
-0.014154172 -0.068302594 0.0065231235
-0.016291888 -0.067579471 0.006501372
-0.0184296 -0.06685634 0.0064796503
-0.020994857 -0.065988578 0.0064535718
-0.023560101 -0.065120764 0.0064274943
-0.025553448 -0.063970342 0.0064230119
-0.027691167 -0.063247211 0.0064012599
-0.03025642 -0.062379446 0.006375182
-0.032821681 -0.061511695 0.006349104
-0.034531854 -0.060933188 0.0063317087
0.0035305875 -0.070951946 0.0068136351
0.0011063708 -0.070512772 0.0067763259
-0.0014611155 -0.070215635 0.0067312671
-0.0035988318 -0.069492504 0.0067095151
-0.005736548 -0.068769373 0.0066877934
-0.0083018048 -0.067901611 0.0066617155
-0.010867062 -0.067033857 0.006635637
-0.013432319 -0.066166095 0.0066095591
-0.015570021 -0.065442905 0.006587808
-0.01770775 -0.064719833 0.0065660854
-0.020273006 -0.063852079 0.0065399776
-0.02283825 -0.062984258 0.0065139001
-0.024975965 -0.062261123 0.0064921784
-0.0271137 -0.061538048 0.006470426
-0.029678939 -0.060670234 0.0064443485
-0.032244202 -0.059802473 0.0064182701
-0.034381911 -0.059079349 0.0063965484
-0.036376655 -0.05828556 0.0063802106
-0.038654558 -0.056919806 0.0063767857
-0.04093387 -0.055910744 0.0063615348
0.013514011 -0.072424516 0.006978401
0.0113763 -0.071701385 0.0069566495
0.0085250791 -0.070974983 0.0069197733
0.0065289605 -0.070537783 0.0068915505
0.004391246 -0.069814652 0.0068698586
0.0018259762 -0.06894695 0.0068437797
-0.00073926774 -0.068079136 0.0068176724
-0.002876983 -0.067355998 0.0067959209
-0.038363032 -0.055351954 0.0064351242
-0.040928293 -0.054484196 0.0064090458
-0.043493561 -0.053616434 0.0063829678
-0.045440625 -0.052799061 0.0063684047
-0.046769511 -0.05203208 0.0063654468
0.018796699 -0.071735568 0.007114348
0.016656755 -0.071583055 0.0070736455
0.014519044 -0.070859924 0.007051894
0.011953783 -0.06999217 0.0070258155
0.009388525 -0.069124408 0.0069997376
0.0072508138 -0.068401277 0.0069780159
0.0051913923 -0.067397512 0.0065503097
0.0026087591 -0.066557772 0.0064395424
-0.044909399 -0.050756745 0.0064476524
-0.046904135 -0.04996296 0.006431344
-0.048849817 -0.048788954 0.0064286664
0.024793986 -0.070764638 0.007274969
0.022155154 -0.070467167 0.007228401
0.019660687 -0.069742396 0.0071990723
0.017503424 -0.069078967 0.0070081507
0.015344218 -0.068414785 0.0068172021
0.012776011 -0.067546025 0.0067910673
0.010207807 -0.066677265 0.0067649619
-0.048746157 -0.046602063 0.0065035569
-0.051106758 -0.045531418 0.0064885919
-0.053160384 -0.044156536 0.0064902655
0.030221581 -0.069505811 0.0074329739
0.028183011 -0.069496416 0.00738966
0.025657419 -0.06891413 0.0073549626
0.023081113 -0.068085678 0.0072161141
0.020444039 -0.067454033 0.0065134582
-0.052582897 -0.042447325 0.006559432
-0.054577626 -0.041653547 0.0065430938
-0.056941617 -0.040401537 0.0065340619
0.033367112 -0.067951083 0.0075519299
0.031226609 -0.067941226 0.0075064674
0.029088898 -0.067218095 0.0074847452
0.02648556 -0.066505738 0.0070078569
0.023863809 -0.065831818 0.0064181597
-0.053854406 -0.039160401 0.0066414145
-0.056419656 -0.038292643 0.0066153067
-0.058780253 -0.037221998 0.0066003418
-0.060406331 -0.035991743 0.0066063721
0.036129493 -0.067060351 0.0076406603
0.034086168 -0.066527858 0.0076146247
0.032070991 -0.065492705 0.0072722416
0.02989755 -0.064922877 0.0067998851
0.027307123 -0.064129919 0.0065483861
-0.055697791 -0.036156084 0.0067017428
-0.058263049 -0.035288323 0.0066756643
-0.060400758 -0.034565195 0.006653883
-0.061966576 -0.033559397 0.0066537866
0.039560989 -0.065364257 0.0077704433
0.037373293 -0.065259054 0.0077271387
0.034776278 -0.064582147 0.007138066
0.032750655 -0.063582391 0.0066831023
0.030605573 -0.062856764 0.0066612675
-0.057541206 -0.03315182 0.0067620701
-0.059678897 -0.032428693 0.0067403484
-0.061816629 -0.031705558 0.0067185964
-0.063619331 -0.030460902 0.0067213327
0.044513848 -0.063865453 0.0079262499
0.043086853 -0.063858867 0.007895912
0.040800497 -0.063600682 0.0077443621
0.038198993 -0.062996753 0.0069303531
0.035620093 -0.062164117 0.0067916289
-0.060950417 -0.029141767 0.0068223011
-0.063372672 -0.028203303 0.0068016374
-0.064937092 -0.026840867 0.0068133664
0.047800958 -0.062596716 0.0080387332
0.045946412 -0.062445495 0.0080040991
0.043795731 -0.061889417 0.0074761384
0.041637488 -0.061333023 0.0069480138
0.039063387 -0.060462266 0.0069218543
-0.062692687 -0.025733527 0.0067870272
-0.065071732 -0.024771754 0.0068792636
-0.06663613 -0.023409322 0.0068909926
0.048805971 -0.061032124 0.0081122266
0.046801694 -0.060100753 0.0074330587
0.044651788 -0.059485994 0.0070739146
0.042506699 -0.058760364 0.0070520802
-0.062129643 -0.023326812 0.0061006076
-0.064365268 -0.022592459 0.0068238256
-0.066439919 -0.02188853 0.0069457227
0.052143056 -0.059145454 0.0082463231
0.049926326 -0.058904748 0.0080067599
0.047666084 -0.057638958 0.0071997857
0.045520995 -0.056913331 0.0071779513
-0.063823685 -0.020237792 0.0065561864
-0.066193268 -0.019630933 0.007026027
0.055574551 -0.057449367 0.0083761066
0.053386845 -0.057344221 0.0083328011
0.050963368 -0.056603387 0.0076800054
0.048390415 -0.055495117 0.0072865076
-0.062989704 -0.018040169 0.0063467901
-0.065241218 -0.017215034 0.0068537048
-0.067464486 -0.016272679 0.0071103452
-0.068601646 -0.015126199 0.0071240654
0.057817783 -0.055510093 0.0084885359
0.056390792 -0.055503502 0.0084582577
0.054259241 -0.05498771 0.0077626016
0.051688872 -0.054221969 0.0073993891
-0.064305924 -0.01504813 0.0063179303
-0.06653598 -0.013916411 0.0068332204
-0.06873627 -0.013057086 0.0071899625
0.058728419 -0.053754866 0.0085663432
0.057117701 -0.053142235 0.008352099
0.055132177 -0.052520059 0.0075296154
0.052558977 -0.051748633 0.0071666003
-0.06580542 -0.011576246 0.0064122849
-0.068031602 -0.01087198 0.0071346369
-0.069867559 -0.01041273 0.0072535593
0.059769142 -0.051748909 0.0086552817
0.058118336 -0.050852507 0.0079348674
0.056001391 -0.0499474 0.0076336814
0.0534322 -0.049302962 0.0068216952
-0.06755174 -0.0083665894 0.006825252
-0.069857821 -0.0079162633 0.0073367259
-0.071422219 -0.0065538334 0.0073484555
0.062948368 -0.049913131 0.0087842718
0.060848862 -0.049486835 0.0084199235
0.058704875 -0.048241593 0.0075480565
0.056737926 -0.047623571 0.0071011055
0.054306496 -0.046786852 0.0067016045
-0.066831179 -0.0060072984 0.0064641172
-0.069272205 -0.0054700566 0.007096909
-0.071556859 -0.0044847135 0.0074143223
0.064269908 -0.047693744 0.0088863382
0.061736058 -0.047078826 0.0079629207
0.059326332 -0.046344202 0.0071990192
0.057185784 -0.045363728 0.0068105003
0.055176452 -0.044779912 0.0067868941
-0.068251923 -0.0031377662 0.0065290346
-0.070544735 -0.0021799691 0.0071789497
-0.072828062 -0.0011264079 0.0074986415
0.066990651 -0.045281172 0.0090246769
0.065150946 -0.045222659 0.0086536724
0.062617466 -0.044599082 0.007730579
0.060065076 -0.043940607 0.0069193961
0.058055174 -0.043500435 0.0068909903
0.056330413 -0.043636058 0.006849579
-0.067382708 -0.0005651064 0.0066330712
-0.069686137 0.00014515358 0.0067074792
-0.071853556 0.0012640107 0.0073487451
-0.073529303 0.0020152703 0.0075879991
0.067901291 -0.043525949 0.0091024544
0.066041008 -0.042775769 0.0083091781
0.063500866 -0.042113408 0.0074984194
0.060937278 -0.041359078 0.0070238244
0.059360664 -0.040346351 0.0070237098
-0.068658583 0.0027331833 0.0067153326
-0.07105545 0.003488228 0.0069392999
-0.073093414 0.0040104105 0.0076636067
0.069081701 -0.041614618 0.0090661375
0.066723958 -0.040504023 0.0080338875
0.064392418 -0.039651357 0.0071544931
0.061809458 -0.038777601 0.0071282522
0.059801254 -0.03790649 0.007114185
-0.06793423 0.0048770839 0.0068020551
-0.07057219 0.0056355707 0.0070567406
-0.072656117 0.0063622482 0.00775113
0.071721487 -0.039739367 0.0093100024
0.070053145 -0.039332855 0.0086206235
0.067672104 -0.038604476 0.0077598672
0.065119244 -0.03750011 0.0072415313
0.062536307 -0.036626361 0.0072152605
-0.069784008 0.0078916866 0.0068626171
-0.071979694 0.0088452632 0.0077368491
-0.073784642 0.0097198216 0.0078384671
0.073015243 -0.037320204 0.0094180927
0.070921347 -0.036763187 0.0087245684
0.068408579 -0.036140054 0.0076906807
0.065846071 -0.035348862 0.0073285401
-0.068914793 0.010464344 0.0069666537
-0.071206428 0.011390842 0.0076155812
-0.073204376 0.01214231 0.007931374
0.073737092 -0.035183705 0.0095044989
0.071813963 -0.034274027 0.0084927632
0.069279782 -0.03356152 0.0077949879
0.066718288 -0.032767333 0.0074329679
-0.068045594 0.013037007 0.0070707202
-0.070339195 0.013664841 0.0076143546
-0.072482526 0.014278812 0.0080177793
0.074458942 -0.033047199 0.009590934
0.072538294 -0.032130178 0.0085794851
0.070173413 -0.03105961 0.0075636366
0.067794941 -0.030391989 0.0075348937
-0.069901384 0.01580099 0.0076232096
-0.071902648 0.016599428 0.0081073074
0.075561367 -0.030455446 0.0095576365
0.0732788 -0.03003598 0.0084425006
0.070900247 -0.028908366 0.007650645
0.069178283 -0.028325865 0.0076331412
-0.069171011 0.018195508 0.0072180042
-0.071368583 0.019117575 0.0080911499
-0.072887801 0.020129586 0.0082034376
0.078473456 -0.028215401 0.009837335
0.0766664 -0.02818587 0.0092436401
0.074156918 -0.027485741 0.0084348144
0.071627073 -0.026757119 0.0077376831
-0.068438016 0.020751396 0.0069849752
-0.070734873 0.021654828 0.007633009
-0.072307527 0.022552073 0.0082963444
0.081007287 -0.026872776 0.0089353984
0.079085864 -0.02649582 0.0089067677
0.077146128 -0.025566643 0.0088961441
0.075027123 -0.024910145 0.0085390313
0.072499275 -0.024175648 0.0078420807
-0.067410409 0.023152366 0.0064195464
-0.06928575 0.023907367 0.0070717065
-0.071492225 0.024662927 0.0077584535
0.082160644 -0.024873996 0.0090264753
0.080030672 -0.024481831 0.0098517593
0.078137659 -0.023383373 0.0091900155
0.075778402 -0.022463223 0.0083444435
0.073442742 -0.021738123 0.0079432502
-0.066538207 0.025733896 0.0065239454
-0.068414621 0.026193386 0.0070709642
-0.071240626 0.026974116 0.0081325024
0.082488 -0.023383608 0.010083765
0.08078061 -0.022091828 0.01009014
0.07899119 -0.021358106 0.0094089955
0.07670375 -0.020459227 0.0084844679
0.074528798 -0.019588497 0.0080379015
-0.065959558 0.028063349 0.0068138684
-0.068003178 0.028288122 0.0074352701
-0.070387319 0.029241549 0.0083094947
0.081649609 -0.018814759 0.010217585
0.07984864 -0.01876721 0.0096246181
0.077367373 -0.018083252 0.0085934848
0.075255625 -0.017437251 0.0081249094
-0.062932096 0.029308265 0.0067198793
-0.065380611 0.030188069 0.0070302971
-0.067259796 0.030926868 0.0076818126
-0.069313325 0.031634551 0.0083619338
0.082771257 -0.016622987 0.010314402
0.080727607 -0.016218718 0.0096169459
0.078217864 -0.015466285 0.0089209899
0.075697325 -0.014710153 0.0082249539
-0.062059898 0.031889733 0.0068243067
-0.064376973 0.032770079 0.0074711433
-0.066683203 0.03364677 0.0081181191
-0.068551116 0.034375206 0.0087695019
0.084947877 -0.014692917 0.010425121
0.08337649 -0.01511367 0.010377483
0.081416637 -0.014020098 0.010038277
0.078912504 -0.013264046 0.009342608
0.076569512 -0.01212868 0.0083293822
-0.059320372 0.034318991 0.0069636288
-0.061187707 0.03447127 0.0069287056
-0.063504227 0.035058971 0.0074705225
-0.065959699 0.035788186 0.0082046958
-0.067734867 0.036321066 0.0088515934
0.081677467 -0.011682065 0.01045514
0.079625607 -0.011102499 0.009540882
0.077296339 -0.0099774348 0.00841639
-0.05873891 0.036040016 0.0070332475
-0.060460862 0.036622509 0.0070157433
-0.062965073 0.037206329 0.007732139
-0.065102443 0.037927162 0.0086277276
-0.066679865 0.03850358 0.0089466693
0.082116142 -0.0089736478 0.010554489
0.080471709 -0.0084963497 0.0098679438
0.078023165 -0.0078261876 0.0085034277
-0.058012079 0.038191199 0.0071202554
-0.059734046 0.038773697 0.0071027512
-0.062056419 0.039638337 0.0077489452
-0.064235225 0.04049395 0.0087315235
-0.065813653 0.041067373 0.0090503739
0.083382152 -0.0063545853 0.010668574
0.081363589 -0.0059584752 0.0097489413
0.078895383 -0.0052446607 0.0086078271
-0.057139885 0.040772732 0.0072246836
-0.058861852 0.04135523 0.0072071794
-0.061186213 0.042213932 0.0078531317
-0.063368015 0.043060675 0.0088353781
-0.064947419 0.043631222 0.0091540786
0.086824372 -0.0039959038 0.009819827
0.084408 -0.004226374 0.010427639
0.082244456 -0.003402218 0.0097415289
0.079767562 -0.0026631856 0.0087122545
0.078045599 -0.0020806848 0.0086947503
-0.056267694 0.043354202 0.007329111
-0.057989664 0.043936703 0.0073115774
-0.060315996 0.044789586 0.0079573188
-0.062610425 0.045354333 0.0085465033
-0.064225577 0.045767721 0.0092405146
0.08654581 -0.0019905644 0.0098804943
0.085297436 -0.002444732 0.010696487
0.082968801 -0.0012583151 0.0098282509
0.080460176 -0.00047016589 0.0091335103
0.078533895 0.00031109151 0.0087846629
-0.055205405 0.045551769 0.0074248286
-0.057262827 0.046087947 0.0073986156
-0.059527922 0.046929438 0.00821207
-0.061961032 0.047478747 0.0090956185
-0.063503727 0.047904223 0.0093269199
0.086835548 -0.0011329913 0.0099151833
0.085575454 -0.00014491925 0.010921797
0.083630376 0.00095221377 0.01047179
0.081163354 0.0017042877 0.009443203
0.079068772 0.0023674294 0.0088644139
-0.054024316 0.047509447 0.0075151543
-0.056536 0.048239198 0.0074856244
-0.058740497 0.049067374 0.0084667411
-0.061055437 0.049905382 0.0091122156
-0.062637515 0.05046802 0.0094306245
0.084162787 0.0035299179 0.01101366
0.081976131 0.0043407585 0.010104164
0.079510465 0.0050945287 0.0089644575
-0.053511329 0.0500926 0.0076119397
-0.055663798 0.050820723 0.0075900527
-0.057995453 0.051657852 0.0082351808
-0.060229253 0.052346252 0.008919091
-0.062138952 0.053481031 0.0087407809
0.084315099 0.0059951046 0.011098771
0.082605056 0.0067413305 0.0105151
0.080337435 0.0077188783 0.0095141064
0.078518152 0.0085465116 0.0090578711
-0.052639142 0.05267407 0.0077163377
-0.054750975 0.053395074 0.0078062722
-0.057043232 0.054219291 0.0085629849
-0.059292041 0.054509509 0.008635724
-0.06137209 0.055223614 0.0087817293
0.083326779 0.0087101134 0.011167841
0.081024088 0.0099013383 0.0099905012
0.078727812 0.010728816 0.0091348486
-0.051481806 0.054679688 0.0078077298
-0.053823043 0.055508025 0.0084523316
-0.056091849 0.056320667 0.0092647504
-0.058577742 0.056440897 0.0097159464
-0.061127152 0.057194442 0.0096863788
0.083479509 0.011277229 0.011256333
0.081684597 0.012096372 0.010689173
0.079231411 0.012869667 0.0094391443
-0.048745085 0.056390762 0.0079231439
-0.050676715 0.05681441 0.0081182634
-0.052939244 0.057620876 0.0089862216
-0.054997165 0.058041122 0.0098457495
0.082390115 0.014607918 0.01096839
0.080091797 0.015457392 0.0096547436
0.078694351 0.016876778 0.0093383649
-0.047504302 0.058744848 0.0080279093
-0.049689252 0.059366848 0.0085578002
-0.051990554 0.06017404 0.0093137287
-0.053464614 0.060696989 0.0099667367
0.082789384 0.017271951 0.011440713
0.080978721 0.017924726 0.010297782
0.079212651 0.018942628 0.0095848609
-0.044224877 0.061014242 0.0081734974
-0.046390217 0.061110102 0.0082415314
-0.048774529 0.062038582 0.0092110336
-0.051118754 0.062634178 0.0098311258
-0.053453483 0.063550033 0.010061787
-0.055163648 0.06412854 0.010044362
0.083082579 0.01926777 0.011513271
0.081970192 0.020115241 0.011267436
0.079952575 0.020774886 0.0099951727
0.078426048 0.021761773 0.0094948784
-0.042256888 0.062106434 0.008251911
-0.043711774 0.06269782 0.008440543
-0.045634925 0.063167945 0.0090154801
-0.048155982 0.06413161 0.0098191984
-0.050738283 0.064536117 0.010152617
-0.052876011 0.065259248 0.010130894
0.082331181 0.021743966 0.01157945
0.080605321 0.022953594 0.010804298
0.078721248 0.023771349 0.0095679639
-0.04074036 0.064110376 0.0083509153
-0.042999398 0.064762279 0.0091026295
-0.045279633 0.065542303 0.0099693341
-0.047356788 0.065614216 0.010260816
0.081030011 0.025357772 0.011504889
0.078954652 0.026377419 0.010326751
0.07744211 0.027368244 0.0096600726
-0.037786994 0.066107735 0.0084804902
-0.039657217 0.066500463 0.0088982992
-0.041915126 0.067264557 0.009876159
-0.043733742 0.067642249 0.010405741
0.081117086 0.027550882 0.011746344
0.079624183 0.028895484 0.011008475
0.077451929 0.029881904 0.009743765
0.075876735 0.031253748 0.0097556198
-0.036413018 0.06839963 0.0085860118
-0.038614985 0.069014385 0.0095601063
-0.040682606 0.069387622 0.010529039
0.080027439 0.031435929 0.010517714
0.078003712 0.031966038 0.010158405
0.075653113 0.03286355 0.0098043075
-0.033892944 0.069824427 0.008687295
-0.035465036 0.070347056 0.0091714347
-0.037685558 0.071077816 0.010315723
-0.039438825 0.07118886 0.010615488
0.080668084 0.032964624 0.010915796
0.078636274 0.034119975 0.011244327
0.076206513 0.034843914 0.010382308
0.074396305 0.035904668 0.010045197
0.07302548 0.037012491 0.0098858923
-0.030292425 0.071962431 0.0088353846
-0.032340348 0.07181251 0.0089116469
-0.034945969 0.072544791 0.010006116
-0.03714839 0.073032834 0.01072576
0.078724042 0.035978623 0.01197509
0.07717675 0.037270393 0.011784728
0.075246029 0.038142499 0.010971757
0.072880283 0.039094247 0.010077003
0.07131473 0.040467709 0.0099640489
-0.027125219 0.073527828 0.0089551806
-0.029462375 0.073704936 0.0092863161
-0.031656675 0.074296765 0.010106894
-0.034062076 0.074328363 0.010634701
0.075663351 0.040512729 0.011893441
0.073541135 0.041585919 0.011049634
0.071170263 0.042548008 0.010155148
0.069603987 0.043922994 0.010042206
-0.021660184 0.07479538 0.0091142561
-0.023862958 0.074901327 0.0090706237
-0.026137656 0.075329788 0.009480984
-0.028441936 0.07606364 0.010456828
-0.030477006 0.076092899 0.010970213
0.074002855 0.043680687 0.011929756
0.071691111 0.044600844 0.011110198
0.069380365 0.045532797 0.010090893
-0.018495774 0.075642645 0.0092101451
-0.020506237 0.075939171 0.0091769397
-0.022817867 0.076598085 0.0096497517
-0.025132999 0.077327371 0.010625198
-0.027045507 0.077788994 0.011099996
0.07376574 0.045274127 0.012177728
0.071974427 0.046524741 0.012014185
0.070054047 0.047415014 0.011025633
0.06808316 0.0483604 0.010657446
0.065947644 0.049570523 0.010151546
0.064169787 0.050555483 0.010146207
-0.015329106 0.077064447 0.0093251429
-0.017558824 0.077361725 0.009573184
-0.019732133 0.077929229 0.010038016
-0.021984097 0.078526974 0.010732473
-0.023902776 0.078630455 0.011195211
0.070737809 0.049472664 0.012252397
0.068813846 0.050665475 0.011875559
0.066426285 0.051644798 0.011120295
0.064022891 0.052623875 0.010461973
0.062075112 0.053820949 0.010209848
-0.0098635145 0.078475654 0.0094890175
-0.011916142 0.078485116 0.009445372
-0.014333883 0.078987963 0.0099663585
-0.016729224 0.079742692 0.01071851
-0.018990105 0.080154285 0.011184203
-0.021137603 0.080234461 0.011307682
0.068657503 0.052715782 0.012315586
0.066891804 0.05369398 0.012310269
0.06469053 0.055045266 0.011863288
0.062158305 0.05598361 0.01083946
0.060171288 0.056894034 0.010271179
0.058307897 0.058051784 0.010269732
-0.0046864166 0.079600871 0.00963719
-0.0062182955 0.079799473 0.009611005
-0.0084664989 0.080030017 0.0096956221
-0.010837736 0.080658577 0.010319041
-0.013215694 0.081390254 0.011182058
-0.015329651 0.08144401 0.011472171
0.064393222 0.057015151 0.012367135
0.062634729 0.058008589 0.012162359
0.06084979 0.059210781 0.011863824
0.058763709 0.059702031 0.01119212
0.056219745 0.060531985 0.010307433
0.054441877 0.061516952 0.010302094
-0.00066100835 0.080156893 0.0097418167
-0.003389318 0.080600418 0.0096981563
-0.0058639199 0.081563957 0.010535007
-0.0079336213 0.082586408 0.011293175
-0.010096485 0.082611755 0.011422847
-0.011898183 0.083140053 0.011601954
0.058948923 0.061586525 0.012068842
0.056723911 0.062552489 0.01149734
0.054157473 0.063486114 0.010806203
0.052154105 0.064662546 0.010607808
0.050148178 0.065845922 0.01035398
0.0088210003 0.079825871 0.0099337939
0.007099031 0.080408357 0.0099162906
0.0048012193 0.080706261 0.0098769832
0.0024532969 0.081128277 0.00996585
1.8360179e-05 0.081789114 0.010366587
-0.002456523 0.082571745 0.010895588
-0.0046851533 0.083112419 0.011421869
-0.0065677301 0.083876349 0.011740505
0.05685851 0.06432531 0.012448673
0.054866597 0.065492719 0.012278024
0.05287322 0.066660672 0.012107347
0.050730776 0.067457013 0.011420779
0.048150953 0.068390086 0.010840564
0.045772091 0.069501996 0.01052473
0.043556653 0.070472799 0.010366589
0.041404199 0.071200922 0.010344701
0.038821246 0.072074667 0.01031846
0.036238302 0.072948419 0.010292189
0.034277789 0.073771395 0.010277559
0.03207875 0.074834891 0.010265804
0.029495804 0.075708635 0.010239563
0.026912857 0.076582395 0.010213292
0.024760397 0.077310517 0.010191405
0.023468923 0.077747397 0.010178285
0.020024996 0.078912392 0.010143247
0.017154116 0.079643823 0.010106103
0.015144231 0.080084048 0.010077698
0.012875844 0.08034721 0.010260282
0.010326049 0.081185371 0.010455991
0.0077799587 0.082022615 0.010651699
0.0052911919 0.082804143 0.011180329
0.0030224638 0.083534382 0.011505516
0.00076064351 0.083703741 0.011691522
-0.0012873031 0.08399462 0.01185747
0.050837785 0.069536231 0.012492906
0.048688415 0.070349738 0.012273783
0.046463851 0.071688905 0.012137213
0.044315565 0.072454885 0.011783063
0.04217295 0.073179722 0.011761317
0.039596844 0.07406386 0.011624293
0.036997717 0.075008936 0.011044119
0.03485018 0.075735427 0.011022258
0.032702625 0.076461844 0.011000455
0.030125577 0.077333592 0.010974239
0.027548529 0.078205347 0.010948022
0.025400989 0.078931823 0.01092616
0.023253448 0.079658307 0.010904328
0.020676393 0.080530062 0.010878141
0.018137978 0.081349082 0.011184621
0.015902527 0.082191311 0.011593626
0.013769103 0.082649209 0.011634688
0.01144778 0.083405405 0.011860309
0.0088438457 0.083805263 0.012068036
0.0064196051 0.084244385 0.012030726
0.045337148 0.073936425 0.012521336
0.042771891 0.074804187 0.012495228
0.040206634 0.075671941 0.01246915
0.037641369 0.076539703 0.012443071
0.035076115 0.077407457 0.012416993
0.032938402 0.078130595 0.012395272
0.030800683 0.078853719 0.01237352
0.028379796 0.080148771 0.01236474
0.025814535 0.081016533 0.012338663
0.023771213 0.081549019 0.012312597
0.021394735 0.082035504 0.01227789
0.018829484 0.082903266 0.012251812
0.016264223 0.08377102 0.012225734
0.014554068 0.08434958 0.012208339
0.057648871 -0.042905223 0.0059012934
0.055921011 -0.042320725 0.0058837347
0.05852123 -0.041035537 0.0059820917
0.058961645 -0.039019737 0.0060584778
0.072874568 -0.020634994 0.0069669681
0.073458031 -0.0189081 0.0070368275
0.074187331 -0.016749509 0.0071241222
-0.060720533 0.031291883 0.0058323294
-0.060137086 0.033018719 0.0059021884
0.074939154 -0.0088257389 0.007403438
0.075668477 -0.0066670906 0.0074907625
-0.056944951 0.038192783 0.0061423788
0.076397799 -0.0045085042 0.0075780572
0.073847428 -0.0037065295 0.006994132
-0.056215648 0.040351376 0.0062297033
0.076841012 -0.0017720365 0.007678465
0.074706696 -0.0010830302 0.0073220497
0.072593503 -0.00043402609 0.006631223
-0.055340461 0.042941716 0.0063344631
0.07742729 0.00067551824 0.0077723162
0.075556368 0.0015489273 0.0077612842
0.073471665 0.0021651282 0.0067363447
0.071304463 0.0028982472 0.0067143212
-0.054322205 0.045243144 0.0064327265
0.078013547 0.0031230177 0.0078661665
0.076285683 0.0037075153 0.0078485794
0.074163921 0.0043848497 0.0073252972
0.072036281 0.005064236 0.0068019326
0.070302516 0.0056507313 0.0067842905
0.077015013 0.0058661629 0.007935904
0.074894495 0.0065471674 0.0074127503
0.072768085 0.007230226 0.006889544
0.070456944 0.0081499089 0.0068706325
-0.052574664 0.04970317 0.0066182846
0.07731349 0.0084591648 0.0080284253
0.075730361 0.009187066 0.0080187228
0.073646255 0.0098293787 0.0069946647
0.071045615 0.010709122 0.0069682309
-0.051699478 0.052293509 0.006723044
0.077609703 0.010475589 0.0081017585
0.076605543 0.011777408 0.0081234826
0.074497201 0.012455366 0.0074337255
0.071923785 0.013308275 0.0070733819
0.070482738 0.014761156 0.0070907902
-0.049024906 0.054154899 0.0068421294
0.077334866 0.013936057 0.008210808
0.075228184 0.014618929 0.0075211916
0.072655596 0.015474263 0.0071609933
0.070921838 0.016060758 0.0071433508
-0.045775335 0.055581197 0.0069590686
-0.047839776 0.056119211 0.0069327378
0.077919446 0.015951181 0.008290275
0.075940453 0.016796468 0.0078312047
0.073387399 0.017640254 0.0072486047
0.071365431 0.018517312 0.0072344434
-0.042454213 0.056863099 0.0070727463
-0.045045994 0.057739843 0.0070463941
-0.046919726 0.057892587 0.0070113409
0.078215666 0.017967667 0.0083635794
0.076788738 0.019409196 0.0082697421
0.074265562 0.020239409 0.0073537254
0.071664937 0.021119151 0.0073272916
0.070223898 0.022572029 0.0073446995
-0.039191883 0.058628138 0.0065340269
-0.041579019 0.059453439 0.0071775056
-0.043980092 0.059944917 0.0071424316
0.077306896 0.021546336 0.0084630176
0.07498832 0.02277259 0.0075784754
0.072543092 0.023718303 0.0074324128
0.070521146 0.024595421 0.0074182823
-0.03625029 0.060520485 0.0063262433
-0.038245406 0.060927175 0.0067259464
-0.040849701 0.061612025 0.0072648302
0.077517286 0.023736127 0.0085402494
0.075864561 0.024809213 0.0083975717
0.07327491 0.025884293 0.0075200237
0.071107715 0.026617412 0.0074980007
0.069953762 0.027490504 0.007502309
-0.030894747 0.061218895 0.0064640669
-0.03335128 0.061953355 0.006435907
-0.035851937 0.062802069 0.0067441682
-0.03796057 0.063039996 0.0073740953
-0.03954538 0.063335583 0.0073500103
0.076233052 0.027160078 0.008626488
0.07395453 0.028067419 0.0082742693
0.071839526 0.0287834 0.0075856121
0.069817267 0.029588141 0.0075690467
0.068231285 0.030969398 0.0075809965
-0.02520033 0.062253226 0.0066203158
-0.027489968 0.062504828 0.0065796836
-0.03001884 0.063239604 0.0065499521
-0.032619469 0.064119346 0.0065235184
-0.034990475 0.06492123 0.007277797
-0.037057344 0.065428421 0.007472781
0.076241076 0.02921902 0.0086950734
0.074660495 0.030595571 0.0087069608
0.072656803 0.031394683 0.0085238405
0.070542805 0.032116849 0.0077798115
0.068094797 0.033067036 0.0076477635
0.066508815 0.034448296 0.0076596839
-0.02292615 0.064219251 0.0067343027
-0.024372846 0.064225897 0.0067035598
-0.026540037 0.064959012 0.0066815368
-0.029140674 0.065838754 0.0066550733
-0.03167795 0.066694587 0.0068516107
-0.034050368 0.067490056 0.0076056151
-0.036069971 0.067211114 0.0075531267
0.074524477 0.032686103 0.0087734805
0.07337445 0.03355623 0.0087777693
0.071247406 0.034284357 0.0082560433
0.068681657 0.035161406 0.007729887
0.066283673 0.036069117 0.0077087134
-0.021617929 0.065804049 0.0068149501
-0.023641033 0.066391885 0.0067911712
-0.025808226 0.067125008 0.0067691482
-0.028408861 0.068004742 0.0067426846
-0.030775549 0.068790287 0.0075521301
-0.032889079 0.069502585 0.0076973219
0.073380068 0.034997497 0.0088257827
0.071799479 0.036374047 0.0088376701
0.069392145 0.0373252 0.0081505729
0.066812836 0.038207136 0.0077910647
0.064790867 0.039084196 0.0077769039
-0.01833275 0.067331597 0.006936003
-0.020742018 0.067824759 0.0069008358
-0.022909217 0.068557873 0.0068787825
-0.025076414 0.069290996 0.0068567595
-0.027497362 0.070091888 0.0074987272
-0.029928405 0.070786096 0.0078033237
-0.032019526 0.070651598 0.0077540986
0.071663469 0.03846458 0.0089041889
0.070082873 0.039841134 0.008916107
0.067671627 0.040800154 0.0082291672
0.065523803 0.041539408 0.0078741629
0.063564084 0.042478181 0.0078634061
0.061048683 0.044018656 0.0078607257
-0.015045337 0.069437593 0.0070763212
-0.017263198 0.069544226 0.0070323911
-0.019863836 0.070423968 0.007005957
-0.022224866 0.071329035 0.0073607918
-0.024303 0.071761653 0.0076702433
-0.026492901 0.072355703 0.0079289917
-0.028552553 0.072365195 0.00788524
0.069946855 0.04193167 0.0089826267
0.068366252 0.043308165 0.0089945141
0.066375844 0.044123482 0.0084786154
0.064234771 0.044871677 0.0079572611
0.061634135 0.045751423 0.0079307966
0.059178438 0.046702787 0.0079098511
0.057592463 0.048084043 0.0079218009
-0.010024146 0.070957094 0.0072342819
-0.011470834 0.070963748 0.0072035389
-0.013784408 0.071263641 0.0071639759
-0.016359203 0.072129212 0.0072488133
-0.018825682 0.072937816 0.0077788923
-0.021266596 0.073628783 0.0080831656
-0.023548434 0.073879555 0.0080426335
0.068230234 0.045398701 0.0090610636
0.067080215 0.046268828 0.0090653226
0.064920381 0.046999451 0.0090433825
0.062352832 0.047903329 0.0083512673
0.059765309 0.048797153 0.0079919742
0.057598095 0.049530212 0.0079699503
0.056444146 0.050403308 0.0079742596
-0.0088623026 0.072108679 0.0072974185
-0.010885393 0.072696507 0.0072736396
-0.013247284 0.073556535 0.00739461
-0.015672278 0.074176192 0.0080209421
-0.017873397 0.074910313 0.0081983544
-0.019890744 0.075207889 0.0081650531
0.06521491 0.0485835 0.0091023035
0.062913448 0.049963392 0.0090988707
0.060482666 0.050939284 0.0085232761
0.058329903 0.0516962 0.0080575617
0.05630767 0.052501 0.0080409963
0.053998329 0.053885527 0.0080375606
0.052121039 0.054761942 0.0080265123
-0.0031678812 0.073143013 0.0074536381
-0.0054259454 0.073539123 0.0074184835
-0.0079863872 0.074129388 0.0073832739
-0.010362525 0.07502979 0.00773761
-0.012867667 0.075634085 0.0081294011
-0.015178354 0.075858809 0.0082875453
-0.016715493 0.076058038 0.0082612652
0.06277743 0.052053928 0.0091654202
0.060956068 0.053311452 0.0091682067
0.059185486 0.054242551 0.0089944452
0.057031669 0.054998584 0.0085842144
0.054440234 0.055908218 0.0081142262
0.052273039 0.056641333 0.0080921724
0.050878912 0.057756558 0.0080993976
0.0022867366 0.074515887 0.0076160086
-0.00024494054 0.074527577 0.0075622033
-0.0023403738 0.07511574 0.0075368825
-0.0044862367 0.075833283 0.0076259868
-0.0069751567 0.076634869 0.0081553478
-0.009429534 0.077321634 0.0084591899
-0.011952621 0.077333264 0.008405583
0.059332959 0.056105513 0.0092262691
0.057549 0.057093836 0.0092209177
0.05530607 0.05843851 0.0091063827
0.053147633 0.059199773 0.0086962814
0.050984003 0.059973609 0.0081752706
0.048732378 0.061314542 0.0081716375
0.046075452 0.06259948 0.0081574535
