# .PCD v0.7 - Point Cloud Data file format
VERSION 0.7
FIELDS x y z
SIZE 4 4 4
TYPE F F F
COUNT 1 1 1
WIDTH 1260
HEIGHT 1
VIEWPOINT 0 0 0 1 0 0 0
POINTS 1260
DATA ascii
-0.079284765 -0.043697502 0.010291899
-0.080438428 -0.042518366 0.010282874
-0.082133196 -0.040516898 0.010275253
-0.083991408 -0.038948711 0.010420546
-0.08594586 -0.037627257 0.010581704
0.0028943866 -0.097420156 0.011568681
0.00095348537 -0.096586868 0.011529416
-0.00054107711 -0.095889173 0.011500346
-0.08294712 -0.037125569 0.010322442
-0.084376723 -0.035570215 0.010313231
-0.086483262 -0.034077272 0.010282929
-0.088568322 -0.032369908 0.010712573
-0.083825476 -0.034153473 0.010358983
-0.085447326 -0.032401577 0.01034827
-0.087311521 -0.030779151 0.010327748
-0.089194365 -0.029286861 0.01080431
-0.091071047 -0.027800154 0.011280892
-0.086718529 -0.029090725 0.010380406
-0.088203475 -0.027227303 0.010376047
-0.089920469 -0.025690697 0.010608199
-0.091753371 -0.024401996 0.011189124
-0.08888457 -0.023639515 0.010431243
-0.090583697 -0.022408981 0.010589294
-0.09246935 -0.021022545 0.010848234
-0.089754567 -0.020613097 0.01046914
-0.091290772 -0.018846598 0.010461256
-0.093202189 -0.017184716 0.010654609
-0.09490817 -0.015774323 0.011170327
-0.091920607 -0.015161886 0.010519978
-0.093694724 -0.013912969 0.010744443
-0.095466949 -0.012499701 0.011115338
-0.092447959 -0.012077057 0.010569144
-0.094211824 -0.010525725 0.010550067
-0.096189864 -0.009010883 0.010523985
-0.09185496 -0.010388624 0.010621803
-0.092997245 -0.0084668072 0.010628667
-0.094827048 -0.0069267224 0.010607434
-0.096497051 -0.0054555745 0.010589419
-0.092558034 -0.0062754611 0.010687339
-0.093543425 -0.004931632 0.010686694
-0.09544225 -0.0033277362 0.010664785
-0.097206138 -0.0017763918 0.010645722
-0.09438742 -0.0011998384 0.010740152
-0.09605746 0.00027125987 0.010722136
-0.097657472 0.0015860025 0.010702888
-0.09378846 0.00092253485 0.010802057
-0.094566099 0.0023773699 0.01080979
-0.096371733 0.0036570185 0.010783806
-0.097834684 0.0049950499 0.010769092
-0.093973137 0.004065753 0.010862432
-0.095093444 0.0054621962 0.010858942
-0.09707918 0.0069516702 0.010832122
-0.0941578 0.007209037 0.010922869
-0.095708661 0.0090611968 0.010916323
-0.094602793 0.011101579 0.010991346
-0.09632384 0.012660241 0.01097366
-0.094257332 0.020684592 0.011202015
-0.096062936 0.021964293 0.011176047
-0.093919113 0.02180052 0.01123525
-0.09542381 0.022866856 0.011213584
-0.030173175 -0.08792372 0.0098006111
-0.031986412 -0.086638689 0.0097745266
-0.034013592 -0.085655771 0.0097358245
-0.03612902 -0.084156543 0.0097054038
-0.038244441 -0.0826573 0.0096749691
-0.040359866 -0.081158057 0.0096445344
-0.042475294 -0.079658814 0.0096140988
-0.044524532 -0.078546822 0.0095774978
-0.046617899 -0.077176668 0.0095450366
-0.048733357 -0.075677484 0.0095145712
-0.05054656 -0.074392393 0.0094884867
-0.052661978 -0.07289315 0.0094580967
-0.05477744 -0.071393967 0.0094276313
-0.056771562 -0.069898225 0.0094006788
-0.058794346 -0.06809333 0.0093793478
-0.060607579 -0.066808298 0.0093532624
-0.062450226 -0.065351143 0.0093299178
-0.064624481 -0.063507676 0.0093049938
-0.0658333 -0.062650979 0.0092875939
-0.022845404 -0.090394422 0.0099630132
-0.02487259 -0.089411505 0.0099243112
-0.026899738 -0.088428557 0.0098856548
-0.029046793 -0.086968876 0.009686742
-0.031195985 -0.085507728 0.0094877062
-0.033034883 -0.084246248 0.0093492093
-0.035201617 -0.082794085 0.0090939654
-0.03732295 -0.081290632 0.0090634162
-0.039218854 -0.080073513 0.0086999461
-0.041343167 -0.078567974 0.0086693624
-0.043467473 -0.077062428 0.0086388234
-0.045288324 -0.075771995 0.0086126365
-0.047412667 -0.074266493 0.0085820528
-0.049536984 -0.072760954 0.0085515138
-0.051661294 -0.071255408 0.0085209301
-0.053785596 -0.069749862 0.0084903911
-0.055709787 -0.068401419 0.008662519
-0.057689548 -0.066796787 0.0087110652
-0.059748754 -0.065397277 0.0087408023
-0.061727166 -0.063964047 0.0090162465
-0.063737825 -0.062379014 0.0089542363
-0.065581925 -0.061014082 0.0093291812
-0.06749092 -0.059479706 0.0093055442
-0.069384903 -0.057411376 0.0092934994
-0.013704405 -0.094150156 0.010151485
-0.014913227 -0.093293466 0.0101341
-0.017372759 -0.091852881 0.010092359
-0.019536082 -0.090665445 0.010054
-0.021522129 -0.089175053 0.0097145038
-0.023699149 -0.087760419 0.0093260864
-0.02556356 -0.086652301 0.0090522151
-0.027879665 -0.085557945 0.0089164739
-0.030254278 -0.084148429 0.0088765882
-0.031996731 -0.083004721 0.0088496199
-0.034414284 -0.081655838 0.0088072065
-0.036538631 -0.080150351 0.0087766526
-0.054747082 -0.067245804 0.0085147088
-0.056871388 -0.065740265 0.0084841549
-0.05878089 -0.063931368 0.0084662121
-0.060601708 -0.062640876 0.0084400252
-0.062718503 -0.060867261 0.0084152948
-0.064610273 -0.05916205 0.0083957119
-0.066303886 -0.057708617 0.0086075459
-0.068217471 -0.0560706 0.0088219922
-0.07037805 -0.054515149 0.0091106864
-0.072546013 -0.052902207 0.0092954887
-0.07414531 -0.051315024 0.009282005
-0.0098332791 -0.093490459 0.010278399
-0.012026846 -0.09294647 0.010225692
-0.013864132 -0.091825664 0.010028698
-0.016017016 -0.090394072 0.0097247474
-0.018169174 -0.088949405 0.0094627589
-0.020091407 -0.087432206 0.0091048228
-0.022377411 -0.086541183 0.009056678
-0.067387745 -0.05445959 0.0084129814
-0.069414556 -0.052894149 0.0085294954
-0.071244642 -0.05126686 0.0086339228
-0.07323043 -0.049839024 0.0089226756
-0.075238243 -0.048314817 0.0091878194
-0.076963469 -0.046481781 0.0093008038
-0.078433685 -0.044872575 0.0092915287
-0.0040606721 -0.094632149 0.010423207
-0.0060878242 -0.093649194 0.010384505
-0.008434399 -0.092495516 0.010173354
-0.010619118 -0.091153197 0.0095260683
-0.012464845 -0.089920983 0.0092755798
-0.014631229 -0.088689409 0.0092380494
-0.016839691 -0.087731801 0.0091935722
-0.071161591 -0.049233273 0.0084121078
-0.072324991 -0.048044212 0.0084029911
-0.073766641 -0.046475727 0.0083937058
-0.075794101 -0.044953484 0.0086164596
-0.077708758 -0.043418609 0.0091207875
-0.079531014 -0.041871473 0.0093222903
-0.081122816 -0.040017348 0.0093145799
0.00447592 -0.097959533 0.010602978
0.001195789 -0.095861763 0.010551047
-0.0011395488 -0.094686918 0.010424023
-0.003023522 -0.093231671 0.010065882
-0.004876642 -0.092054136 0.0096194101
-0.0071951216 -0.091103882 0.009404798
-0.0095254472 -0.089953639 0.0093607828
-0.010998522 -0.089137517 0.0093348185
-0.073514238 -0.044831961 0.0084354905
-0.074809231 -0.043185089 0.0084321201
-0.076511368 -0.041340817 0.0084209656
-0.078452736 -0.040001202 0.0086782277
-0.080229208 -0.038445167 0.0090657128
-0.082199074 -0.037050582 0.0093452195
0.0068224045 -0.097081415 0.010689929
0.0046390593 -0.095806293 0.010652848
0.0025144494 -0.094351731 0.010454435
0.00046400388 -0.092984274 0.0098560844
-0.001737197 -0.091827892 0.0095491316
-0.075740606 -0.039608698 0.00847976
-0.077037767 -0.038038433 0.0084747421
-0.079057649 -0.036462288 0.0085256631
-0.081331208 -0.035092771 0.0090113226
-0.082999803 -0.033352375 0.0093082683
-0.084687792 -0.031591885 0.0093867537
-0.085984863 -0.030218847 0.0093776062
0.01006535 -0.096475616 0.010797341
0.0081701316 -0.094827622 0.010526351
0.0061332672 -0.093555085 0.010100324
0.0039931866 -0.092585519 0.0097007249
0.0020240028 -0.091987289 0.0096556954
-0.078093216 -0.035207339 0.0085031427
-0.08016707 -0.033373088 0.00848094
-0.081738286 -0.03182666 0.0084674135
-0.083413064 -0.0299946 0.0087069767
-0.085503459 -0.028463602 0.0091975387
-0.087160721 -0.026965436 0.0094113704
0.013678407 -0.095859885 0.010915854
0.011557333 -0.094450414 0.010549803
0.0096373698 -0.09313193 0.010008103
0.0073844511 -0.092140958 0.0098091085
-0.083008848 -0.027774516 0.0085150851
-0.08451096 -0.026499698 0.0086980201
-0.086236767 -0.02507131 0.0090777464
-0.087863818 -0.023542933 0.0094624395
-0.089033715 -0.021705445 0.0094667161
0.017291985 -0.095274441 0.01092248
0.015173613 -0.09392406 0.010332952
0.013070539 -0.092639305 0.0099648451
0.011101312 -0.092041127 0.0099198008
-0.083886132 -0.024722476 0.008553341
-0.085095674 -0.023036826 0.0085532581
-0.086905621 -0.021548821 0.0089762714
-0.088661008 -0.020071991 0.0095118023
-0.090425745 -0.0182232 0.0094989315
0.020612365 -0.09454947 0.01064554
0.018800918 -0.093396932 0.010116394
0.016765226 -0.092409894 0.010077581
-0.085024871 -0.02118146 0.0085941767
-0.085938655 -0.019736419 0.0085977353
-0.087524727 -0.018097525 0.0088715646
-0.089293063 -0.016669588 0.0093143936
-0.091083229 -0.015412828 0.009538536
0.024132369 -0.09429951 0.010453399
0.022125682 -0.092563555 0.010231008
0.020423029 -0.091964401 0.010193789
-0.086602256 -0.016114427 0.0086541558
-0.088150412 -0.014615953 0.0088547114
-0.090259351 -0.01313796 0.0095477114
-0.091685176 -0.011477125 0.0096033402
0.027663393 -0.093754172 0.010367887
0.025539083 -0.092248626 0.010337319
0.023532931 -0.091434427 0.010295763
-0.087395422 -0.0125145 0.008706321
-0.089009367 -0.011085085 0.0089619793
-0.090730228 -0.0095451334 0.0095716109
-0.091974735 -0.0081258044 0.0096650375
0.030988155 -0.092920788 0.010482472
0.029163927 -0.091752149 0.010453636
0.026961122 -0.091205887 0.010400717
-0.087711215 -0.0093667833 0.0087629938
-0.089326799 -0.0077340724 0.0089643579
-0.091060065 -0.0063324771 0.0094791371
-0.092720464 -0.0047990954 0.0097128637
0.034616403 -0.092302464 0.01060144
0.032514241 -0.090926565 0.010568843
0.030848507 -0.090543441 0.010528166
-0.088374823 -0.0057447813 0.0088194143
-0.089921415 -0.0042556534 0.0090198033
-0.092024997 -0.0028089916 0.0097123226
-0.093450308 -0.0011508465 0.0097679123
0.038007632 -0.091857947 0.010709852
0.035905503 -0.090481997 0.010677211
0.033958431 -0.090013459 0.010630139
-0.088850491 -0.0022686156 0.0088782767
-0.090721734 -0.00064110255 0.0093579851
-0.092614852 0.00079811242 0.0098330975
-0.093609728 0.0019569485 0.0098282993
0.041354574 -0.091154166 0.010822365
0.039533723 -0.089863718 0.010796163
0.037557136 -0.08922229 0.010751849
-0.088224471 -0.00038329948 0.0089360224
-0.089253135 0.0012847049 0.0089408597
-0.091009893 0.002757747 0.0094832825
-0.092817165 0.0042415671 0.0098992717
-0.093711384 0.0056590931 0.0099028181
0.042858481 -0.08903034 0.010910777
0.041096743 -0.088085517 0.010879075
-0.088672094 0.0032754943 0.0089995302
-0.089585878 0.0047205351 0.0090030888
-0.091354266 0.0061731604 0.0094821593
-0.093218148 0.0077799922 0.0099616051
0.046468999 -0.088308319 0.011031355
0.044397879 -0.08711385 0.010995866
0.042503979 -0.086956374 0.010943829
-0.088989012 0.0066898167 0.0090617267
-0.090150356 0.0083438503 0.0091291172
-0.09219797 0.0096941004 0.0098775607
-0.093908004 0.011470456 0.010018717
0.047990639 -0.086288191 0.011118112
0.046258427 -0.085516192 0.011083681
-0.08911106 0.010747097 0.009143115
-0.090992413 0.011924127 0.0096464194
-0.092882387 0.013239314 0.010085717
-0.094997816 0.014738558 0.010055312
0.049164254 -0.084906645 0.011181352
-0.088408962 0.012658099 0.0092036016
-0.089408018 0.013821797 0.0091987755
-0.091231272 0.01520199 0.0098414673
-0.093500204 0.016853468 0.010143314
-0.095615633 0.018352712 0.010112865
-0.088451996 0.016030107 0.0092729377
-0.089861535 0.017281994 0.0095914947
-0.092216522 0.018666293 0.010218776
-0.094261356 0.01975248 0.010181742
-0.088630065 0.019322136 0.0094617261
-0.090562776 0.020714868 0.010046668
-0.09272103 0.022323951 0.01028057
-0.094433591 0.023867674 0.010262831
-0.08796861 0.021003703 0.0093911551
-0.089240953 0.022841897 0.0096592968
-0.09133669 0.024395471 0.010364377
-0.093149915 0.025680508 0.010338292
-0.088538498 0.024674626 0.009594311
-0.089760691 0.026437815 0.010238793
-0.091652274 0.027795468 0.01042634
-0.088284634 0.028564112 0.01020728
-0.090034902 0.029909965 0.010417769
-0.087333798 0.030396281 0.0096063036
-0.088750474 0.031615131 0.010174138
-0.090986431 0.033222467 0.010559399
-0.086201571 0.032510132 0.0096836388
-0.087449297 0.033855785 0.0098004006
-0.089488782 0.035337418 0.010647447
-0.086225249 0.036081113 0.0097576939
-0.08809942 0.037521943 0.010483573
-0.085249364 0.038084473 0.0098281577
-0.086921908 0.039408579 0.010307305
-0.084058546 0.040256571 0.0099084098
-0.085500941 0.041584171 0.010206737
-0.087325275 0.042879362 0.010868509
-0.082613684 0.042726114 0.010002309
-0.083827585 0.043586407 0.0099848416
-0.085631132 0.044857457 0.010709239
-0.08232367 0.045710225 0.01007324
-0.084131926 0.046974599 0.010797378
-0.080819778 0.047834057 0.010161652
-0.08263275 0.04909176 0.010885487
-0.079530671 0.049654521 0.010237425
-0.081347711 0.050906479 0.010961022
-0.078300677 0.051820606 0.010318697
-0.07987339 0.053045455 0.010986344
-0.076826312 0.054117262 0.010409853
-0.07844796 0.055229381 0.010886055
-0.075537249 0.055937681 0.010485625
-0.07716158 0.057046 0.01096171
-0.074344322 0.058008533 0.010563833
-0.075663611 0.059104607 0.010625185
-0.072832875 0.060400486 0.010658054
-0.074046768 0.061260771 0.010640601
-0.071543813 0.062220901 0.010733826
-0.072757713 0.063081205 0.010716373
-0.070039898 0.064344719 0.010822223
-0.071253806 0.065205023 0.010804756
-0.068535969 0.066468596 0.010910622
-0.069749862 0.067328893 0.010893169
-0.067032062 0.068592422 0.010999035
-0.068245962 0.069452718 0.010981552
-0.065528139 0.070716232 0.011087433
-0.06674201 0.07157658 0.011069965
-0.061787125 0.075355694 0.011293848
-0.061142609 0.076265909 0.011331741
-0.034179293 0.088597864 0.012377728
-0.035646163 0.090002015 0.01236426
-0.037302669 0.091267101 0.012342333
-0.034925893 0.091405369 0.012414672
-0.036443289 0.092480712 0.012392852
-0.03858678 -0.079066753 0.0077388408
-0.040719975 -0.077554896 0.0077081532
-0.042853206 -0.076043107 0.0076774657
-0.044681672 -0.074747257 0.0076511619
-0.04681487 -0.073235407 0.0076204743
-0.048948064 -0.071723565 0.0075897872
-0.050776534 -0.070427723 0.0075634834
-0.052909736 -0.068915874 0.0075327959
-0.025712041 -0.085445762 0.0079815127
-0.027582737 -0.084425002 0.0079482272
-0.029584715 -0.083158739 0.0079162251
-0.031592719 -0.081931762 0.0078832386
-0.033691455 -0.080410287 0.0076536238
-0.035732709 -0.078889728 0.0075757741
-0.037581787 -0.077608995 0.0074651772
-0.039756216 -0.076127373 0.0072658733
-0.041893873 -0.074612409 0.0072351042
-0.04372615 -0.073313855 0.0072087795
-0.045863803 -0.071798883 0.0071780249
-0.047979135 -0.070269987 0.0072315969
-0.049765546 -0.068944521 0.0073739109
-0.051900987 -0.067431144 0.0073432047
-0.054179966 -0.066185355 0.00755283
-0.056008436 -0.064889513 0.0075265267
-0.057896227 -0.063246541 0.0075057587
-0.060059123 -0.061561193 0.0074778316
-0.061722543 -0.060290799 0.0074558207
-0.063500285 -0.05866478 0.0074379053
-0.017891195 -0.08732786 0.0081706494
-0.019761924 -0.086307138 0.008137349
-0.02212687 -0.085424192 0.0080867326
-0.024051365 -0.084391706 0.0078853229
-0.026243908 -0.082952559 0.0075178598
-0.02841264 -0.081473656 0.00731869
-0.030262062 -0.080192052 0.0072080502
-0.032216839 -0.078549564 0.0070121316
-0.034378294 -0.076903537 0.0069064372
-0.036214378 -0.075602286 0.0068800319
-0.038332824 -0.074215434 0.0067561949
-0.040425308 -0.072662525 0.0064182747
-0.042414673 -0.071321778 0.0064548962
-0.044500247 -0.069906615 0.0064841909
-0.046478365 -0.068270251 0.006633509
-0.048454911 -0.066927247 0.0067039365
-0.050597019 -0.065409139 0.0066731451
-0.052883577 -0.0641599 0.0068826163
-0.054717772 -0.062860027 0.0068562436
-0.056857638 -0.061343461 0.0068254857
-0.058971286 -0.059816454 0.0068790419
-0.060751718 -0.058496471 0.0070214053
-0.062807627 -0.056953147 0.0072438191
-0.064859539 -0.055413637 0.0074662357
-0.066654645 -0.053600606 0.0074517312
-0.068694457 -0.051780615 0.0074302214
-0.07030718 -0.0501801 0.007416598
-0.012025566 -0.08873944 0.0083124908
-0.014169564 -0.087612174 0.0082734441
-0.016418742 -0.086541131 0.0082301386
-0.018600082 -0.085105456 0.0078629069
-0.020820988 -0.083717354 0.0072711417
-0.022600779 -0.082218617 0.0069574183
-0.024589293 -0.080872968 0.006751976
-0.026617154 -0.079267472 0.0064404774
-0.028715545 -0.077947773 0.0062995795
-0.030573817 -0.076658919 0.0061888555
-0.032757126 -0.07516785 0.0059894607
-0.034908094 -0.073643401 0.0059585362
-0.036751796 -0.072336748 0.005932014
-0.038902763 -0.0708123 0.0059010591
-0.041053768 -0.069287896 0.0058701346
-0.04289747 -0.067981243 0.0058436124
-0.045048468 -0.066456847 0.0058126422
-0.047177259 -0.064920001 0.0058660065
-0.049104005 -0.063585229 0.0060621598
-0.051155761 -0.061968699 0.0059282971
-0.053272847 -0.060543768 0.0059462516
-0.055241857 -0.059235252 0.0059738304
-0.057235342 -0.057593331 0.0060423645
-0.059256259 -0.056137372 0.0063640219
-0.061537705 -0.054898441 0.0065734577
-0.063679829 -0.05338034 0.0065426216
-0.065545142 -0.052015219 0.0069169775
-0.067543022 -0.050406158 0.0069468468
-0.069522619 -0.048979137 0.0072422866
-0.071369223 -0.047414102 0.0074434699
-0.072974376 -0.045544349 0.0074357046
-0.0068116914 -0.0899942 0.0084385825
-0.0090516387 -0.088902414 0.0083959894
-0.010794071 -0.087306179 0.0080211163
-0.013036253 -0.086047672 0.0077675167
-0.015037146 -0.084636569 0.0073097451
-0.017230373 -0.083201595 0.0069004325
-0.019430527 -0.081762709 0.0064910157
-0.021104081 -0.080348648 0.0063216262
-0.022937661 -0.078897268 0.0061983699
-0.025131231 -0.077650212 0.0061603771
-0.027457165 -0.07615561 0.0061237016
-0.029300867 -0.074848957 0.0060971794
-0.031669401 -0.073631756 0.0060534356
-0.033820368 -0.072107308 0.0060224659
-0.035049535 -0.071236245 0.0060048094
-0.043960739 -0.064920746 0.005876617
-0.046111744 -0.063396342 0.0058456473
-0.047904313 -0.061756793 0.0058276011
-0.049881272 -0.059986614 0.0058068866
-0.05182232 -0.058426391 0.0057828529
-0.053666018 -0.057119738 0.0057563158
-0.055816989 -0.055595286 0.0057253465
-0.057967991 -0.054070879 0.0056944359
-0.06007614 -0.053044375 0.0059621567
-0.062089283 -0.051411044 0.0059632091
-0.064164408 -0.04997877 0.0060993191
-0.066213369 -0.04854444 0.0063029584
-0.068165727 -0.046902899 0.0064701508
-0.070262954 -0.045460869 0.006916299
-0.072243899 -0.044080164 0.0073876414
-0.073863827 -0.042534616 0.0074727116
-0.075032108 -0.04134059 0.0074635637
0.0007466533 -0.091385216 0.0086303176
-0.0012307942 -0.090784512 0.0085851112
-0.0033151903 -0.089843631 0.0083129965
-0.0055316919 -0.088542648 0.0080394
-0.0075918818 -0.087078504 0.0077263317
-0.0095514804 -0.085334174 0.0073720333
-0.011748012 -0.083921447 0.0068648728
-0.013643028 -0.08271613 0.0063900277
-0.01575811 -0.081401683 0.0063557243
-0.018380068 -0.080281675 0.0063025402
-0.019916501 -0.079192825 0.0062804511
-0.053103123 -0.055673089 0.0058030393
-0.054946825 -0.054366447 0.0057765171
-0.057046693 -0.05250914 0.0057540382
-0.058718551 -0.051034283 0.0057360604
-0.060657423 -0.049396537 0.0057136631
-0.062808402 -0.047872081 0.0056827534
-0.0646521 -0.046565432 0.0056562312
-0.066716552 -0.045024995 0.0058783102
-0.068603158 -0.04345832 0.0066064391
-0.07076776 -0.042298686 0.0069523389
-0.073165879 -0.041290436 0.0075191408
-0.074867584 -0.039169259 0.0075138141
-0.076404296 -0.037073575 0.0075127799
0.0045235809 -0.091545284 0.0087373378
0.0022142052 -0.090619244 0.0086058602
4.9492704e-05 -0.089223668 0.0080992663
-0.0021223458 -0.087817095 0.0076205363
-0.0040749498 -0.086070076 0.0072664903
-0.0059437831 -0.084843457 0.0069040055
-0.0081255361 -0.083396696 0.0065369676
-0.010279994 -0.081995666 0.0065033566
-0.012277948 -0.081222832 0.0064611705
-0.060139406 -0.047687389 0.0057645869
-0.06171526 -0.046142139 0.0057508992
-0.06334684 -0.044722136 0.0057329498
-0.065280281 -0.042890478 0.0057147397
-0.067431279 -0.041366078 0.0056838142
-0.069065049 -0.040023658 0.0056641987
-0.075906999 -0.035595682 0.0075582438
-0.077319078 -0.03422888 0.0075456006
-0.079244077 -0.032681555 0.007521736
-0.081109494 -0.030856183 0.0075054383
0.0091257347 -0.09183263 0.0088657923
0.0075343535 -0.091196924 0.008707514
0.0056390916 -0.089876398 0.0082712015
0.0034243541 -0.08859352 0.0079203015
0.0015265069 -0.087232791 0.0075725876
-0.00064392318 -0.085805424 0.0071429783
-0.0026080697 -0.084077299 0.006683982
-0.0044517773 -0.082770653 0.0066574598
-0.0065354425 -0.081639946 0.0066202418
-0.065114446 -0.040701136 0.0057654451
-0.066292457 -0.03949713 0.0057562348
-0.06775219 -0.037908938 0.0057468293
-0.069245994 -0.036542632 0.0057317792
-0.076247014 -0.032163367 0.007495088
-0.077984087 -0.030764544 0.0073127779
-0.079980865 -0.029107669 0.0072176531
-0.08198937 -0.028059132 0.0075382781
-0.083211727 -0.026392093 0.0075374455
0.013638899 -0.091599308 0.009002558
0.011119562 -0.090818755 0.0087308753
0.0090791583 -0.089582101 0.0081837848
0.0070218141 -0.087931134 0.0076351557
0.0048531983 -0.086536244 0.0070728837
0.0029991551 -0.085282855 0.0068225954
0.00096901023 -0.084239513 0.006785105
-0.0017378742 -0.082848407 0.006735093
-0.0032743125 -0.081759557 0.0067130188
-0.067189291 -0.036462292 0.0057935528
-0.068508163 -0.035066184 0.0057842527
-0.070185453 -0.033785243 0.0057620285
-0.075286768 -0.029531902 0.006702641
-0.076510832 -0.028664403 0.0066850376
-0.078652948 -0.0271463 0.0066542309
-0.080876589 -0.025938045 0.0069480874
-0.082665369 -0.024417527 0.0075280401
-0.084183976 -0.022271229 0.0075953002
0.016531235 -0.091285042 0.0090936506
0.014453458 -0.09024559 0.008554385
0.012407113 -0.088658929 0.0077545494
0.010673226 -0.087426797 0.0072520585
0.008516659 -0.085963428 0.0069695204
0.0064980099 -0.08468657 0.0069373073
0.0044839154 -0.084489509 0.0068825721
-0.073218115 -0.027686005 0.0059678587
-0.07500641 -0.026625207 0.0059711565
-0.077240534 -0.025212502 0.0060432199
-0.079139821 -0.023693005 0.0062834695
-0.081327781 -0.022372944 0.0068427501
-0.083282121 -0.020810502 0.0074520954
-0.084846951 -0.019437198 0.0076352479
-0.085981436 -0.01802309 0.0076316916
0.019877126 -0.091012493 0.009197114
0.018105574 -0.089623198 0.0086741354
0.015967324 -0.088261455 0.0080147507
0.014009469 -0.086786114 0.0072128996
0.012250261 -0.085687324 0.0070844367
0.010526208 -0.085080676 0.0070467484
-0.074591346 -0.024756946 0.0058222716
-0.075904772 -0.023166943 0.005817188
-0.077536389 -0.021746993 0.0057992381
-0.079762958 -0.020439222 0.0061617671
-0.08193104 -0.018834168 0.0067949798
-0.083855718 -0.017341675 0.0072911531
-0.085699767 -0.016189016 0.0076783104
0.025527876 -0.090644903 0.0093699275
0.023694016 -0.090362072 0.0093222624
0.021536918 -0.089275204 0.0089067509
0.019626167 -0.087608136 0.0082604019
0.017488353 -0.086265422 0.0074755568
0.015399188 -0.085150734 0.0071876924
-0.076362327 -0.019926049 0.005871648
-0.078382097 -0.018379249 0.0058449721
-0.080649495 -0.016771344 0.0061762361
-0.082497388 -0.015185532 0.0065921126
-0.084678121 -0.013999422 0.0073787603
-0.086352453 -0.012370932 0.0077391607
-0.087227441 -0.01073399 0.0077478569
0.028710146 -0.090459794 0.0094667925
0.027000364 -0.089858122 0.0094294176
0.024884909 -0.088467911 0.0088963993
0.022790497 -0.086931184 0.0082669733
0.021158887 -0.085639901 0.0075958828
0.019102899 -0.084699638 0.0073053297
-0.075757965 -0.017932052 0.0059310361
-0.077040337 -0.016298201 0.0059277434
-0.079010308 -0.014704349 0.0059035402
-0.080967404 -0.013406686 0.0059504844
-0.082778186 -0.012005229 0.0064657088
-0.085049368 -0.010556249 0.0073149102
-0.086626939 -0.0090241907 0.0078011923
-0.087761424 -0.0076100845 0.0077976361
0.032383241 -0.090012416 0.0095834825
0.030388527 -0.089301817 0.0094566904
0.028549878 -0.087906554 0.0087650688
0.026431644 -0.086508252 0.0082321027
0.024422292 -0.08507552 0.007634846
0.022746796 -0.083898559 0.0074285879
-0.07796748 -0.012905803 0.0059716851
-0.079331212 -0.011247206 0.0059665553
-0.081606731 -0.0098530799 0.0061436417
-0.08374346 -0.0083749667 0.006898399
-0.085638784 -0.0069105723 0.0074573839
-0.08747977 -0.0057760044 0.0078442544
0.035937667 -0.088870868 0.0097112292
0.034074884 -0.088798635 0.0096583189
0.032073002 -0.087502785 0.009159998
0.030098692 -0.085903771 0.0082685174
0.027986886 -0.084536366 0.0075683291
0.025955567 -0.083711915 0.007526238
-0.078595653 -0.0092308586 0.0060302382
-0.080176957 -0.0078795096 0.0060123042
-0.08247871 -0.0062789009 0.0062514506
-0.084245063 -0.0047307988 0.0068599228
-0.086407878 -0.0035839065 0.0076713273
-0.087767951 -0.0019315152 0.0079163099
0.039060578 -0.088338703 0.00981363
0.037387881 -0.087953947 0.0097728074
0.035316397 -0.086690187 0.0092384284
0.033223148 -0.085317574 0.0085944375
0.03143594 -0.084191859 0.0077875266
0.029434454 -0.082998998 0.0076428433
-0.079365432 -0.0060817664 0.0060736816
-0.081022665 -0.0045117647 0.0060581132
-0.083016537 -0.0031324865 0.0063016056
-0.084904827 -0.0015786364 0.0070067244
-0.086780064 -3.4730514e-05 0.0077119651
-0.088059954 0.001447951 0.0079785176
0.040473733 -0.087204814 0.0098786559
0.038840644 -0.086079724 0.0094906203
0.036889967 -0.084710859 0.008637879
0.034803145 -0.083354622 0.0078756213
0.03293331 -0.082402706 0.0077575552
0.031084174 -0.08211752 0.0077094724
-0.080459766 -0.0030651158 0.0061048362
-0.081773221 -0.0014751663 0.0060997522
-0.083416522 0.0004468332 0.0062795519
-0.085368805 0.0018607071 0.0070651416
-0.087095864 0.0032012975 0.0077354852
-0.088593937 0.0045718546 0.0080282968
0.044303216 -0.086105704 0.010013562
0.042337447 -0.085546248 0.0099011185
0.040496908 -0.084187761 0.0090418998
0.038467433 -0.082710184 0.0080795949
0.03639226 -0.081573136 0.0078759948
-0.082516804 0.0028747297 0.0061690724
-0.084030062 0.0041138143 0.0063731726
-0.085970677 0.0053806696 0.0073356675
-0.08792071 0.0068076719 0.0080233011
-0.088958926 0.0087962309 0.0081060501
0.045878928 -0.08480382 0.010086849
0.043905623 -0.083595321 0.0096375691
0.041855827 -0.082257658 0.0087995548
0.039929532 -0.081096396 0.007989319
-0.082023457 0.0045024767 0.0062175388
-0.082817495 0.0059880242 0.0062254453
-0.084758595 0.0074358084 0.0066993283
-0.08682014 0.0090276478 0.007589716
-0.088253468 0.010309552 0.0081583513
0.049285598 -0.083917096 0.010204947
0.04724405 -0.082806543 0.0099184029
0.045280121 -0.081548192 0.0092798155
0.043443382 -0.08024247 0.0082766358
0.041520871 -0.079978757 0.0080591841
-0.082081936 0.008004372 0.0062891277
-0.083251052 0.0094289361 0.006361736
-0.085126735 0.010952741 0.0070123356
-0.087047316 0.012330157 0.0079279914
-0.088198476 0.013748146 0.0082319258
0.050624568 -0.082349367 0.010276895
0.048758227 -0.080904737 0.0096093174
0.046800245 -0.079387762 0.0084482348
0.045337379 -0.078608014 0.0081994161
-0.08185333 0.01163236 0.0063717626
-0.08366251 0.013076084 0.0065992628
-0.085861154 0.014404668 0.0076212198
-0.087408885 0.015757406 0.0082061077
0.054267999 -0.081728429 0.010396346
0.052201096 -0.080309838 0.0099209258
0.050189741 -0.078977659 0.0090005565
0.048247628 -0.077803321 0.0083013186
-0.081360012 0.013260059 0.0064202435
-0.082584701 0.014966921 0.0064201802
-0.084334277 0.016361484 0.0070653316
-0.086160593 0.017733959 0.0077911867
-0.0875955 0.018994762 0.008359367
0.055632021 -0.079659738 0.0097867716
0.05380198 -0.07828667 0.009454147
0.051751543 -0.076890253 0.0087980125
0.050054006 -0.076183371 0.0083879791
-0.081919126 0.017162874 0.0064855833
-0.083089523 0.018638302 0.0064822556
-0.084847331 0.019970715 0.0073969099
-0.086867996 0.021255758 0.0082611796
0.057154551 -0.077446334 0.0095696794
0.055065565 -0.075991549 0.0092055351
0.053045928 -0.074727982 0.0085058846
-0.081873998 0.021006601 0.0065673753
-0.083544746 0.022223579 0.0069609582
-0.085787721 0.023434607 0.0079333484
-0.087263644 0.024975138 0.0083941948
-0.088557251 0.026814556 0.0084949452
0.058454435 -0.075610638 0.0096460879
0.056451343 -0.074246325 0.0087822368
0.054448407 -0.073453441 0.0085735144
-0.080717213 0.022770563 0.006638092
-0.082230367 0.023942279 0.0067184628
-0.083960518 0.025392115 0.0074168984
-0.086129181 0.026792703 0.0078376988
-0.087562174 0.027929135 0.0083805788
0.062113039 -0.074987143 0.0097660664
0.060031593 -0.073528886 0.0094022248
0.058149844 -0.072462447 0.0087024206
-0.07978832 0.024603745 0.0067036059
-0.080697589 0.026045052 0.0067071994
-0.082553506 0.027510393 0.0071214391
-0.084582187 0.028984992 0.007798837
-0.086452872 0.029891519 0.0084957443
0.063629523 -0.072845556 0.009855194
0.061676305 -0.0715013 0.0088256057
0.060184777 -0.070674904 0.0087993164
-0.079759359 0.028120482 0.0067780474
-0.081210576 0.029764196 0.0067700353
-0.08311823 0.030977201 0.0078404155
-0.08503899 0.032264017 0.0085241916
0.067071475 -0.072527997 0.0099623939
0.06497924 -0.071052335 0.0096819792
0.062981568 -0.069658011 0.0089023244
0.061317347 -0.069401361 0.0088590607
-0.080133207 0.031676702 0.0068415664
-0.081830211 0.032987978 0.007375353
-0.083848692 0.034447964 0.0083920574
-0.085296854 0.035943266 0.0087812822
0.068587996 -0.070386358 0.010051552
0.066497304 -0.068908498 0.0097712427
0.064504363 -0.06750752 0.008991817
-0.079134196 0.03409297 0.0069213565
-0.080432951 0.035215437 0.0071570398
-0.082438208 0.036653139 0.0082292333
-0.084171139 0.038086999 0.008859057
0.070104495 -0.068244785 0.01014068
0.068068989 -0.06680315 0.0096110525
0.066334449 -0.065574773 0.0090857726
-0.077999115 0.036254566 0.0069997567
-0.07901071 0.037432864 0.0069948742
-0.081011206 0.038853049 0.0081002014
-0.082971521 0.040358197 0.0089416485
0.071404375 -0.066409081 0.010217087
0.06939023 -0.064975806 0.009604523
0.067684583 -0.063993983 0.0091582909
-0.07770545 0.03927616 0.0070715928
-0.079591267 0.040606607 0.0077114142
-0.081603043 0.04202171 0.008766301
0.072894692 -0.064140715 0.010231157
0.070855178 -0.062877066 0.0094744312
0.069034703 -0.062413182 0.0092308391
-0.076489933 0.041644458 0.0071566827
-0.078137562 0.042800665 0.0076330411
-0.080140829 0.044195179 0.0087294392
-0.081515945 0.045160688 0.0090846997
0.076273456 -0.063427098 0.010421779
0.074190743 -0.061941996 0.010141836
0.072221689 -0.060519394 0.0093636112
-0.074967131 0.043794945 0.0072461902
-0.076649778 0.044972714 0.0076385979
-0.078677513 0.046370201 0.0086926203
-0.08000575 0.047293428 0.0091734622
0.077573314 -0.06159145 0.010498187
0.075512551 -0.060114745 0.010135324
0.073834255 -0.058893848 0.009444763
-0.073661879 0.045638245 0.0073229093
-0.075410135 0.046865348 0.0075476258
-0.077380352 0.048202056 0.0087688658
-0.078711271 0.049121484 0.0092495605
0.079089798 -0.059449866 0.010587329
0.077104971 -0.058004551 0.0099341357
0.075307697 -0.056906156 0.0095294164
-0.07227622 0.04768819 0.0074063027
-0.073888928 0.049013603 0.007637057
-0.075938649 0.050401833 0.0086694499
-0.077369824 0.05156989 0.0093399994
0.080755636 -0.057371471 0.010123589
0.078723542 -0.055899516 0.0096502705
0.077187106 -0.054810662 0.0096281655
-0.070923559 0.050157029 0.0074974769
-0.072367683 0.051161908 0.0077264886
-0.074447855 0.052561726 0.0086956667
-0.075995602 0.053602893 0.0094227167
0.08217977 -0.055580672 0.0097579584
0.080028795 -0.05405622 0.0097269891
0.078274839 -0.053274572 0.0096921111
-0.070053414 0.051385883 0.0075486475
-0.070977323 0.052862938 0.0076526264
-0.072965004 0.054346114 0.008597658
-0.074701123 0.055430952 0.0094987992
0.081551597 -0.051905729 0.0098164817
-0.069324657 0.055021927 0.0076460321
-0.071418293 0.05640655 0.0086144879
-0.073381439 0.057823453 0.0095874397
0.083074391 -0.049755238 0.0099060042
-0.067801856 0.057172418 0.0077355695
-0.069901787 0.058548126 0.0087036453
-0.071985461 0.059912357 0.0096719563
0.084379643 -0.047911938 0.0099827386
-0.066496596 0.059015706 0.0078122881
-0.068601906 0.060383823 0.0087800529
-0.070690989 0.061740421 0.0097480379
0.08568491 -0.04606865 0.010059457
-0.065429084 0.060895648 0.0078828307
-0.067166202 0.06250263 0.0089189876
-0.069180794 0.063873164 0.0098368162
0.087207705 -0.043918159 0.01014895
0.08610636 -0.042214852 0.010152453
-0.063975848 0.063227244 0.0079740966
-0.065567747 0.064560264 0.0088935904
-0.067670569 0.066005878 0.0099255797
0.088730499 -0.041767661 0.010238472
0.087194063 -0.04067881 0.010216367
-0.062168188 0.065291241 0.0080701299
-0.064269051 0.066502698 0.0090347463
-0.066376098 0.067833945 0.010001676
0.090035744 -0.039924357 0.010315191
-0.059176292 0.066746578 0.0081879897
-0.060958847 0.067273527 0.0083970707
-0.062930636 0.068647496 0.0093541844
-0.06486588 0.069966674 0.01009044
0.091558546 -0.037773874 0.010404684
0.090457201 -0.03607057 0.010408187
-0.057835136 0.068379864 0.0082613751
-0.059436247 0.069279462 0.008500224
-0.061382018 0.070795 0.0097092539
-0.063355669 0.072099403 0.010179203
-0.065445013 0.0734969 0.010147413
0.093081348 -0.035623383 0.010494206
0.091386117 -0.034237403 0.010473701
-0.056258507 0.070215374 0.008345875
-0.057922646 0.071277693 0.0089032101
-0.060058735 0.072591387 0.0098689171
-0.062061194 0.073927462 0.0102553
-0.063867435 0.07509312 0.010226922
0.094386585 -0.033780076 0.01057094
0.092473343 -0.032292329 0.010546206
-0.054668378 0.071972162 0.0084291045
-0.056469336 0.073406957 0.0092820786
-0.058583304 0.074616425 0.01017121
-0.060275916 0.076017745 0.010351222
-0.061122745 0.077838093 0.010364568
0.093758419 -0.03010514 0.010629508
-0.053123157 0.07399141 0.0085164895
-0.055008914 0.075418636 0.0096170139
-0.057212334 0.076897025 0.010459144
-0.059040815 0.078192875 0.01043284
0.095281206 -0.027954642 0.010719045
0.094007209 -0.026821041 0.01070553
-0.050371237 0.075270802 0.0086236838
-0.051569261 0.076092944 0.0087170983
-0.053652003 0.077262275 0.0099704703
-0.055917863 0.078725085 0.010535226
0.096586466 -0.026111351 0.010795764
0.095050037 -0.025022497 0.01077366
-0.048758693 0.076896288 0.0087048654
-0.050233487 0.077886455 0.0089048371
-0.052357227 0.079309575 0.010062894
0.09810926 -0.023960855 0.010885241
0.096572816 -0.022871997 0.010863167
-0.046768632 0.078946337 0.0088058868
-0.048772309 0.080135688 0.0087722391
-0.050781455 0.081422985 0.0095645525
0.098185346 -0.021246508 0.010944288
-0.045055971 0.080685228 0.0090591274
-0.04701722 0.081875421 0.0097493986
-0.043528121 0.082642004 0.0097909672
-0.045710612 0.083849832 0.010607218
-0.040392373 0.083811261 0.0097194323
-0.042223994 0.084552303 0.010672495
-0.036740948 0.08466126 0.01081959
-0.038523804 0.085161328 0.010749361
-0.040672712 0.086681314 0.011147231
-0.04280591 0.088193156 0.011116544
0.099273674 -0.0094449269 0.011223139
-0.035505559 0.086222343 0.011288601
-0.037029285 0.087302178 0.011266681
-0.039162498 0.088814035 0.011235993
-0.041273452 0.090195686 0.011203231
0.10044771 -0.007624031 0.011295549
0.09900105 -0.0070601362 0.011265074
-0.034236446 0.087885313 0.011360496
-0.035950553 0.088825576 0.011330098
-0.038083754 0.090337425 0.011299411
0.1001649 -0.0028096437 0.01138805
0.099550307 -0.0023741475 0.0113792
-0.030961424 0.089407898 0.011488061
-0.032396149 0.089967139 0.011457846
-0.033949535 0.091220528 0.011438685
0.10164963 -0.0020163506 0.011448057
0.099937126 -0.00068734656 0.011425829
0.099011868 0.00077580084 0.011429411
-0.029362058 0.090101272 0.01054866
-0.03106067 0.09139958 0.011276698
-0.033145886 0.092786379 0.011494944
0.10238519 6.3527583e-10 0.011511739
0.10132872 0.0014408032 0.011511013
0.099694945 0.0027832177 0.011491382
-0.022775803 0.090779163 0.009754641
-0.02461952 0.092085823 0.0097281197
-0.026403897 0.093222745 0.01003335
0.10082389 0.0051121903 0.011573117
-0.020121764 0.091051362 0.0098379245
-0.021888157 0.091951795 0.009916327
-0.02390483 0.09306632 0.010686801
-0.01641807 0.09150245 0.0099555477
-0.018382419 0.092455499 0.010132545
-0.02024517 0.093689978 0.010806801
-0.022374738 0.095166028 0.010858875
-0.013229356 0.091870479 0.010389992
-0.014945969 0.092947744 0.01041369
-0.016839327 0.094179258 0.010749767
0.098726213 0.016665477 0.011753655
0.097804382 0.017318826 0.011740386
0.10008761 0.017462328 0.011810109
0.098235562 0.018858775 0.011785242
0.095819242 0.021032628 0.011760123
0.094107874 0.022091679 0.011732298
0.091914304 0.02333873 0.011694305
0.090685166 0.024209838 0.011676589
-0.0028324069 0.094177872 0.010408545
-0.0013096164 0.096328355 0.010498052
-0.0030786307 0.096588202 0.010528749
0.0023641735 0.096954457 0.0106185
0.00037023801 0.097560167 0.01057294
0.0076641031 0.095966652 0.010752696
0.0061380183 0.096679091 0.01072302
0.0038489045 0.097747751 0.010678477
0.0016979018 0.099272154 0.010647566
0.011614071 0.096331045 0.010875755
0.0093698148 0.097190522 0.010828147
0.0075226943 0.098373845 0.010798939
0.00529201 0.099635318 0.01076015
0.01685535 0.095912129 0.011020128
0.0151313 0.096518785 0.010982454
0.013040157 0.097693235 0.010945909
0.010889193 0.099217683 0.010914998
0.022462578 0.094706573 0.011158726
0.020608019 0.095625468 0.011123786
0.01834012 0.096705481 0.011080119
0.016518824 0.097880825 0.011051504
0.013910315 0.098922081 0.010997064
0.030348616 0.092808798 0.011349425
0.028287351 0.093808204 0.011310143
0.026226114 0.094807662 0.011270832
0.024164882 0.095807113 0.011231491
0.021934198 0.097068585 0.011192718
0.039643213 0.088989899 0.011541096
0.037756916 0.090019137 0.011507536
0.035557248 0.091226548 0.011468527
0.033677045 0.092295446 0.011435968
0.031526074 0.093819901 0.011404999
0.029375071 0.095344312 0.011374073
0.027531371 0.096650958 0.011347551
0.025807321 0.097257614 0.011309847
0.072291434 0.06862016 0.012068691
0.071062259 0.069491208 0.012051019
0.051703416 0.083211079 0.01177253
0.049859714 0.084517725 0.011746008
0.047401443 0.086259924 0.01171065
0.045207843 0.087506935 0.011672672
0.043008178 0.088714339 0.011633663
0.041127969 0.089783244 0.011601103
0.038976975 0.09130764 0.011570118
0.03682597 0.092832051 0.011539209
0.034945771 0.093900941 0.01150665
0.048451081 0.086438775 0.011745064
-0.025129972 -0.07673534 0.0051789107
-0.026981289 -0.075423293 0.0051522721
-0.028832603 -0.074111231 0.0051256334
-0.031210922 -0.072888993 0.0050817318
-0.033370811 -0.071358286 0.0050506578
-0.035463069 -0.070222892 0.0050132861
-0.037600443 -0.068823993 0.0049801171
-0.039760295 -0.067293234 0.0049490589
-0.041611616 -0.065981187 0.0049224198
-0.043244503 -0.064360663 0.0049086097
-0.045404386 -0.062829956 0.0048775505
-0.047300741 -0.061254296 0.0048551168
-0.048888564 -0.059897333 0.0048371172
-0.015402814 -0.080231555 0.0053899474
-0.017648241 -0.07925792 0.005344741
-0.019648669 -0.078025565 0.005312081
-0.021569336 -0.076942332 0.0052786204
-0.023729218 -0.075411618 0.0052475464
-0.025889076 -0.073880866 0.0052164732
-0.027740395 -0.072568811 0.0051898346
-0.029900284 -0.071038105 0.0051587606
-0.032092862 -0.069534093 0.0049594082
-0.033928122 -0.068208426 0.0050169015
-0.057991747 -0.050110105 0.0047759973
-0.05917462 -0.048901148 0.0047667255
-0.010346759 -0.080726221 0.0055273436
-0.012077929 -0.080117054 0.0054894984
-0.014177748 -0.078937791 0.0054528289
-0.016337603 -0.077407032 0.0054217707
-0.018188922 -0.076094978 0.0053951466
-0.060695942 -0.045440283 0.0047947187
-0.062800832 -0.043551441 0.0047727381
-0.0068311924 -0.080669649 0.0056312419
-0.0088559072 -0.079929657 0.0055875853
-0.010623984 -0.078389205 0.0053862124
-0.012714293 -0.076886661 0.0049756821
-0.061927084 -0.042317539 0.0048241108
-0.0637784 -0.041005492 0.0047974871
-0.065244168 -0.039410714 0.0047880374
-0.066427052 -0.038201746 0.0047787656
0.00088430522 -0.083043069 0.005681932
-0.00093728572 -0.081835262 0.0057790875
-0.0029376836 -0.080602854 0.0057464275
-0.005177774 -0.079325922 0.0055825925
-0.0073821009 -0.077884994 0.005089731
-0.064100623 -0.037534025 0.0048607211
-0.06607873 -0.03593358 0.0048364187
-0.067983478 -0.033855591 0.0048242607
-0.069834799 -0.032543533 0.0047976216
-0.071201898 -0.031420223 0.0047811875
0.0038077366 -0.08313708 0.0048898198
0.002258609 -0.082039222 0.0048675612
0.00030919159 -0.080192432 0.0048492514
-0.0015497408 -0.078874983 0.0048225108
-0.0037185177 -0.077337965 0.0047913333
-0.070565403 -0.029503385 0.0048399195
-0.072008356 -0.027760081 0.0048342319
0.012054677 -0.084865525 0.0060952706
0.0099681122 -0.083941899 0.005962654
0.0079704793 -0.082592577 0.0055231722
0.007021076 -0.081227615 0.005023689
0.0033032096 -0.078592703 0.0049701934
0.0016252052 -0.078333959 0.004926621
-0.00023372906 -0.077016503 0.0048998655
-0.071751691 -0.026088767 0.0048767352
-0.073471278 -0.024754282 0.0048544081
-0.074972399 -0.023111289 0.0048449249
0.015713597 -0.084061161 0.0062190145
0.013658479 -0.08328709 0.0060981875
0.011427023 -0.082024433 0.005536031
0.0093570575 -0.080557175 0.0051060133
0.0074981288 -0.079239719 0.0050792731
0.0053474549 -0.077808559 0.0050463886
0.0031222436 -0.077534042 0.0049870699
-0.072073944 -0.022617362 0.0049399687
-0.074233793 -0.021086607 0.0049088951
-0.075472578 -0.019127671 0.004913697
0.01887558 -0.083522275 0.0063226828
0.017084731 -0.082585528 0.0061787814
0.01492032 -0.081225239 0.0053379778
0.0127514 -0.079706319 0.0052229916
0.010892464 -0.07838887 0.005196251
-0.072704732 -0.018927258 0.0049987677
-0.074732848 -0.017374076 0.0049720211
-0.075970486 -0.015686162 0.0049711918
0.022037534 -0.082983449 0.0064263656
0.020248143 -0.082046442 0.0062825023
0.018403776 -0.080897905 0.0054743947
0.016236182 -0.079384856 0.0053315684
0.014067439 -0.077847794 0.0053003468
-0.073422998 -0.015565796 0.0049480721
-0.07540527 -0.014233558 0.0050181146
-0.077169895 -0.012635464 0.0049999924
0.025816597 -0.082881965 0.0065389033
0.02376464 -0.08153896 0.0061496738
0.021797284 -0.080053292 0.0055634473
0.019940326 -0.078753598 0.0054530129
0.017620107 -0.077923298 0.0054025743
0.015564426 -0.077047981 0.0053608101
-0.076254487 -0.010851916 0.0050640707
-0.077956729 -0.0094602201 0.0050434829
0.02941544 -0.081726156 0.0066682575
0.027405776 -0.081074014 0.0066231955
0.025451966 -0.079604775 0.0059536025
0.023334667 -0.077902757 0.0055699917
0.02183078 -0.077069558 0.0055434648
-0.076885276 -0.0071618143 0.0051228846
-0.078386396 -0.0055188164 0.0051134164
-0.07962402 -0.0038309149 0.0051125716
0.032577429 -0.081187271 0.0067719412
0.030786183 -0.08022666 0.0067397216
0.028940709 -0.078936763 0.0066015827
0.026819464 -0.077581286 0.0056785685
0.024673318 -0.076176584 0.0056452351
0.022972709 -0.07578548 0.0056036995
-0.077154137 -0.0036841664 0.004887633
-0.079058819 -0.0023783043 0.0051595098
-0.080823436 -0.00078021717 0.0051413877
0.03629642 -0.08073435 0.0068900893
0.034258503 -0.079776481 0.0067735948
0.032360658 -0.078199536 0.0061610611
0.030523598 -0.076950036 0.0058000134
0.028403549 -0.075698048 0.0057642739
0.025837885 -0.075024806 0.0057033431
-0.077785283 -0.00013793226 0.0045765312
-0.079799399 0.0010575741 0.0051328102
-0.08161027 0.0023950336 0.0051848628
0.039661795 -0.079799168 0.0070079919
0.037907887 -0.079154588 0.0068932706
0.035832152 -0.077859186 0.006364922
0.033917911 -0.076099239 0.0059169913
0.032081611 -0.074914083 0.0058881394
0.030380996 -0.07452298 0.0058466038
-0.078550838 0.0033220015 0.0048933858
-0.080538817 0.0046934397 0.0052642645
-0.081599675 0.0061401692 0.0052635577
0.04277873 -0.078996733 0.0071158642
0.041326083 -0.078430489 0.0070852819
0.039228924 -0.077029087 0.0063862456
0.037092879 -0.075558156 0.0060210866
0.035294261 -0.074593589 0.0059887008
-0.077051051 0.0052570463 0.0044774273
-0.078815602 0.0067765499 0.005176283
-0.080861077 0.0081648473 0.0053275283
-0.081658393 0.0096565261 0.0053354455
0.044465523 -0.077759862 0.0071910447
0.042673141 -0.076643325 0.0068284767
0.040577702 -0.075236641 0.006129649
0.038431574 -0.073831946 0.0060963305
-0.077613331 0.0085754348 0.0048473291
-0.0795504 0.010015783 0.0054045729
-0.080944106 0.011188783 0.0053884047
0.048350379 -0.076690942 0.0073269433
0.046356447 -0.075997785 0.0070330054
0.044281848 -0.07460539 0.0062511088
0.042113073 -0.07306838 0.0062199011
0.040308453 -0.072068498 0.0061880699
-0.07592953 0.010589691 0.0045217751
-0.077928215 0.012052053 0.0049317349
-0.080075808 0.013723819 0.0054668272
-0.081419975 0.015664827 0.0054681739
0.049900748 -0.075109191 0.0074053411
0.047941349 -0.073912315 0.006706059
0.045839865 -0.072569445 0.0063392348
0.043483436 -0.071527421 0.0062921653
-0.074394137 0.012758004 0.0046119979
-0.076562896 0.014295006 0.0045808204
-0.078716226 0.01589608 0.0053852433
-0.080680251 0.017418422 0.0055264975
-0.081609294 0.018887671 0.0055301031
0.052996393 -0.073729098 0.0075246887
0.051063895 -0.073311873 0.0071434053
0.04901484 -0.072028369 0.0064433301
0.04731423 -0.071637265 0.006401795
-0.075246856 0.016153537 0.0046581756
-0.077564143 0.017828725 0.0050424389
-0.079501346 0.01924688 0.0055992296
-0.081044093 0.020340282 0.005577011
0.054427203 -0.072581053 0.0075905267
0.052658267 -0.071220905 0.0068168533
0.050663333 -0.070521757 0.0065229959
-0.073711485 0.018321792 0.0047484282
-0.075880267 0.019858805 0.0047172206
-0.077805407 0.021066707 0.0053294869
-0.079803281 0.022373024 0.0056558158
0.057732519 -0.071294434 0.0077140401
0.056030098 -0.070786864 0.0075915246
0.054276336 -0.069212757 0.0066560172
-0.072618224 0.0206871 0.0048298687
-0.074344844 0.022027105 0.0048074583
-0.076508924 0.023325473 0.005343168
-0.078512929 0.024569221 0.0057394933
-0.079443142 0.026309511 0.0057487451
0.059374243 -0.069793999 0.0077934097
0.057639848 -0.068702482 0.0072096726
0.055857606 -0.067457579 0.0067389458
-0.071629405 0.022707775 0.004901032
-0.073028803 0.023885636 0.0048848134
-0.075071834 0.025347186 0.0051892553
-0.076983839 0.026728628 0.0058293957
-0.078806654 0.028226353 0.005807478
0.062160071 -0.068641104 0.0078989565
0.060707394 -0.068074912 0.0078683738
0.059012894 -0.066898972 0.0069540106
0.057173647 -0.065599047 0.0068163006
-0.071845055 0.025721602 0.0049578384
-0.073571734 0.027061576 0.0049354276
-0.075551197 0.028479395 0.0054075751
-0.077833056 0.030110268 0.0058753518
-0.079157397 0.031512078 0.0058659906
0.063470714 -0.066790223 0.0079759862
0.062268116 -0.065939799 0.0077918707
0.06056796 -0.064748257 0.0069333087
0.058975894 -0.063930064 0.0069038807
-0.072608463 0.028859984 0.0050012069
-0.074205101 0.030766888 0.0049944883
-0.07637427 0.032316964 0.0057765367
-0.078185342 0.033757392 0.0059414133
0.065308347 -0.064849518 0.0080703087
0.063874245 -0.063833721 0.0074937507
0.062217712 -0.062793948 0.0070224069
-0.072794102 0.03293873 0.0050811842
-0.074960321 0.034559481 0.0055520912
-0.07693474 0.035959773 0.0060240533
-0.077732086 0.037451398 0.0060319556
0.066905029 -0.063085474 0.0081538819
0.065278322 -0.062038925 0.0071276412
0.063819692 -0.061470348 0.0070968922
-0.071663491 0.035013273 0.005157629
-0.073739298 0.03648204 0.0053778756
-0.075624108 0.037810661 0.0061010825
-0.076858312 0.038685359 0.0060833134
0.068741322 -0.061121911 0.0080342209
0.066813715 -0.059870616 0.0072179092
-0.070437953 0.03740108 0.0052434145
-0.071987055 0.03849899 0.0052211555
-0.073877856 0.039821837 0.0059440425
-0.07563778 0.041063406 0.006168751
0.070349231 -0.059147052 0.008086809
0.068371728 -0.057834666 0.0073060351
-0.068707094 0.03956379 0.0053392579
-0.070451677 0.040667247 0.0053113783
-0.072437622 0.042056624 0.0057827337
-0.074108683 0.043222807 0.0062586386
0.073147692 -0.058359645 0.0084352158
0.071699329 -0.057312977 0.0079978881
0.069974944 -0.056063432 0.0073899385
-0.067516394 0.041245308 0.0054092454
-0.069135629 0.042525776 0.005388733
-0.071124293 0.043911308 0.0058599408
-0.072798051 0.045073695 0.0063356683
0.074931279 -0.056102615 0.0085345954
0.073227912 -0.055346627 0.008071783
0.071290992 -0.054204907 0.0074672932
-0.066270493 0.043286398 0.0054883622
-0.06781958 0.044384301 0.0054661031
-0.069749311 0.045982867 0.0060149333
-0.071298979 0.047408812 0.0064283684
0.07651443 -0.054259546 0.0086194109
0.074586198 -0.053116314 0.008015221
0.0728264 -0.052036602 0.0075575612
-0.065219007 0.045099862 0.0055570276
-0.066284217 0.046552557 0.0055563552
-0.068195678 0.048090689 0.0057471106
-0.070048422 0.049611144 0.0065110084
0.078019716 -0.052414235 0.0087020276
0.076095976 -0.051140279 0.0081721609
0.074361756 -0.049868338 0.0076477984
-0.064881109 0.04869831 0.0056422632
-0.066831715 0.050175548 0.005866345
-0.06873779 0.051462032 0.0065880525
-0.069753543 0.052645251 0.0065831123
0.079444282 -0.050776429 0.008777949
0.077430606 -0.049292214 0.0081664519
0.075677812 -0.048009813 0.0077251536
-0.063547149 0.050793346 0.0057250876
-0.065425545 0.051889241 0.0057932064
