# .PCD v0.7 - Point Cloud Data file format
VERSION 0.7
FIELDS x y z
SIZE 4 4 4
TYPE F F F
COUNT 1 1 1
WIDTH 1275
HEIGHT 1
VIEWPOINT 0 0 0 1 0 0 0
POINTS 1275
DATA ascii
-0.039712638 -0.058815725 0.01058339
-0.040859055 -0.059846684 0.01132174
0.065789476 0.044626005 0.012691519
0.063910395 0.042839322 0.012668908
0.0621261 0.041104611 0.012062748
0.060841426 0.039598677 0.011622264
-0.041159969 -0.057324935 0.010598264
-0.042655729 -0.058352444 0.011249084
0.06400305 0.046503723 0.012772695
0.062123973 0.044717044 0.012750098
0.060361881 0.043003306 0.011977407
0.059310388 0.041477788 0.011699545
-0.043110609 -0.055396669 0.010483282
-0.044514958 -0.056693915 0.011217915
-0.046552904 -0.057086188 0.01148787
0.06221664 0.048381452 0.01285384
0.060337603 0.046594728 0.012831214
0.05882103 0.045014251 0.011808506
-0.044904515 -0.053511087 0.010564763
-0.046351671 -0.054865818 0.01113163
-0.047573686 -0.05601326 0.011534247
0.060685426 0.04999093 0.012923392
0.05880639 0.04820421 0.01290078
0.057339944 0.046786904 0.011881976
-0.046448819 -0.052157678 0.010627171
-0.047935002 -0.053304423 0.011033866
-0.049373347 -0.054658994 0.011600551
0.058362134 0.051358171 0.012998072
0.057055 0.050113764 0.012732226
0.055815581 0.048928823 0.011966732
-0.047736809 -0.051073678 0.010677934
-0.049776524 -0.051472034 0.010947784
-0.05115978 -0.052781284 0.011681711
0.058567449 0.055334073 0.013109036
0.057112627 0.053746331 0.013085698
0.055308081 0.052034933 0.012508298
0.054284595 0.050807897 0.012044013
-0.051916912 -0.049917869 0.010774926
-0.05321129 -0.051027946 0.011763346
0.055326208 0.05562406 0.013166873
0.053532023 0.053932816 0.012478701
0.052146759 0.052965056 0.01213854
-0.053710852 -0.048032239 0.010856409
-0.055001039 -0.049281105 0.011840815
0.053539794 0.057501785 0.013248018
0.051740628 0.055815764 0.012560096
0.050433837 0.054585628 0.012211207
-0.055504758 -0.046146657 0.01093792
-0.056787439 -0.047403365 0.011921945
0.05200858 0.059111264 0.013317569
0.050230846 0.057465781 0.012408143
0.049159117 0.056195334 0.012276859
-0.057042427 -0.044530392 0.011007772
-0.058318608 -0.045793924 0.011991511
0.05006751 0.060906928 0.012398171
0.048450116 0.059369035 0.012378734
0.047371864 0.058343783 0.012365785
-0.058836326 -0.042644806 0.011089253
-0.060105044 -0.043916222 0.012072687
0.048273563 0.062792554 0.012479682
0.04665618 0.061254669 0.012460245
0.045577958 0.060229365 0.012447282
-0.060301892 -0.040460676 0.011341055
-0.062133074 -0.042175338 0.012153592
0.046904568 0.064476147 0.013549441
0.045097623 0.062829845 0.012751598
0.043770742 0.061589289 0.012513904
-0.059445657 -0.035528433 0.011302766
-0.060361952 -0.037083719 0.011272129
-0.061808813 -0.038824737 0.011494401
-0.063691087 -0.040684275 0.012220181
-0.065570153 -0.042470943 0.012197569
0.043274265 0.064645037 0.013192828
0.041712582 0.063428864 0.012598106
-0.058583803 -0.032656718 0.011372026
-0.060088031 -0.033881824 0.011359824
-0.061805271 -0.035206839 0.01134801
-0.063510031 -0.036881726 0.011826284
-0.065126203 -0.03872795 0.012298223
0.04150375 0.066576384 0.013025134
0.039670706 0.064966768 0.012673386
0.038039703 0.063835658 0.012665845
-0.06368003 -0.033544641 0.011424356
-0.065300174 -0.035000063 0.011907582
-0.06691502 -0.036451072 0.012390841
0.038362421 0.066194735 0.012728631
0.037270844 0.064643808 0.012700778
-0.065406419 -0.031961281 0.011496129
-0.06703043 -0.033291172 0.012054519
-0.069050334 -0.035051096 0.012463662
-0.067049675 -0.029792504 0.011583432
-0.068684675 -0.031332802 0.011993035
-0.07083676 -0.033173379 0.012544793
-0.068724684 -0.027933776 0.011662367
-0.070414923 -0.029623905 0.012139942
-0.072367929 -0.031563938 0.012614358
-0.069952913 -0.024484143 0.011780101
-0.070518576 -0.026048176 0.011743848
-0.072155096 -0.027717909 0.012346287
-0.073966421 -0.029653443 0.012693585
-0.071121097 -0.022824503 0.011845559
-0.072381094 -0.024326453 0.012321924
-0.074061729 -0.026021762 0.012799216
-0.075142063 -0.027304515 0.012778918
-0.071410768 -0.019713804 0.011939242
-0.072402038 -0.021114454 0.012096113
-0.073863938 -0.022849984 0.012787181
-0.075592943 -0.024412284 0.012868783
-0.076156281 -0.025969751 0.01283271
0.024073705 0.074296333 0.013179214
0.022503773 0.073689751 0.013185802
-0.072619624 -0.017579691 0.012018947
-0.074040867 -0.019276798 0.012617274
-0.075768709 -0.021003157 0.012969323
-0.077115297 -0.022453832 0.012948223
0.022300681 0.076061867 0.013256957
0.020764111 0.074747406 0.013242716
-0.073098391 -0.013622648 0.012139793
-0.073899418 -0.015430745 0.012183498
-0.075676076 -0.017338695 0.013073065
-0.077555105 -0.019125413 0.013050453
0.020763006 0.077678129 0.013326825
0.018902998 0.076002784 0.01330712
-0.074010327 -0.012232389 0.01219362
-0.075516492 -0.013686047 0.012603695
-0.077357762 -0.015463589 0.013152554
-0.078388162 -0.017533269 0.013108875
0.019216508 0.078943908 0.013386755
0.017082173 0.077769488 0.01338561
-0.07454963 -0.0085894689 0.012306378
-0.075488128 -0.010154017 0.012352776
-0.077012017 -0.011768188 0.012945439
-0.078450203 -0.013079272 0.013237624
-0.07498908 -0.0051594283 0.012411527
-0.075686231 -0.0067201881 0.01237739
-0.077195667 -0.0084484592 0.012934488
-0.078901045 -0.010187089 0.01332749
0.011607401 0.079746485 0.013525951
0.010046545 0.07836502 0.013510131
-0.075825609 -0.0035605982 0.012470164
-0.077212378 -0.0049304278 0.012724904
-0.078808382 -0.0065226778 0.013431261
0.010149262 0.081039295 0.013585308
0.0081827966 0.07956852 0.013573091
0.0060484326 0.078394152 0.013572004
-0.076069839 0.0006535959 0.012594831
-0.076999396 -0.0014273947 0.012549276
-0.078901038 -0.0029892777 0.01273362
-0.079999022 -0.0046291673 0.013303633
0.0063389558 0.080966942 0.013641404
0.0045019262 0.079659924 0.013631934
0.0028934102 0.078472473 0.013622418
0.0012937273 0.077635512 0.013622823
-0.076084375 0.0035470524 0.012678077
-0.076906361 0.0022524234 0.012653484
-0.078793339 0.00045823539 0.012630788
-0.079979166 -0.0013533765 0.01259692
0.0032139306 0.080743924 0.013682698
0.0013469011 0.079738252 0.01368235
-0.00018966771 0.078423791 0.013668093
-0.076880641 0.0055832444 0.01274866
-0.078444034 0.0038686823 0.012723336
-0.080117963 0.0021743549 0.012700266
-0.00019959889 0.081004024 0.01374228
-0.0023339721 0.079829656 0.013741135
-0.0042009526 0.078823946 0.0137408
-0.075885028 0.01143239 0.012901308
-0.076783158 0.0094382893 0.012857806
-0.078350998 0.0075485003 0.01282747
-0.080119036 0.0057274112 0.012802226
-0.0041478234 0.080926731 0.013800343
-0.0060148453 0.079921052 0.013799979
-0.0078818295 0.07891535 0.013799615
-0.0092229992 0.07789661 0.013790867
-0.075724281 0.014321493 0.012981768
-0.076808378 0.012774218 0.013053984
-0.078539141 0.011261065 0.013508636
-0.07993909 0.0094074225 0.013505413
-0.0075701824 0.080836348 0.013849988
-0.0093262866 0.080055878 0.013854398
-0.011345877 0.0786632 0.01384524
-0.013656008 0.077375479 0.01384358
-0.074351162 0.020073617 0.013125858
-0.075267404 0.018518291 0.013095221
-0.076652698 0.01644863 0.013056939
-0.078530326 0.014509592 0.013430166
-0.013133553 0.079308748 0.013891089
-0.014481401 0.078027196 0.013874882
-0.07373894 0.023477547 0.013214192
-0.074968591 0.021667007 0.013181024
-0.076454498 0.020125844 0.013159472
-0.077947102 0.018321853 0.013130506
-0.079176746 0.016511314 0.013097309
-0.071765609 0.02868874 0.013333608
-0.072824337 0.026949102 0.013299857
-0.07448785 0.025074217 0.01327143
-0.076374747 0.023279946 0.013248762
-0.077768713 0.021661395 0.013223608
-0.026120685 0.075510733 0.013980371
-0.027746949 0.073622398 0.013950998
-0.02962061 0.072353877 0.013943206
-0.031494271 0.071085356 0.013935412
-0.071329728 0.031360596 0.013403614
-0.072521113 0.030022513 0.013383416
-0.073915035 0.028403923 0.013358262
-0.075236708 0.026670845 0.013328697
-0.027424229 0.075981475 0.014013769
-0.02921514 0.075011447 0.01401329
-0.030901965 0.073700726 0.014001413
-0.032788903 0.0719065 0.013978716
-0.034745272 0.070339441 0.013963654
-0.036542863 0.069106609 0.0139557
-0.037884023 0.068087861 0.013946937
-0.065918699 0.04143101 0.013609997
-0.067536086 0.039893113 0.013590558
-0.06915348 0.038355224 0.013571107
-0.032466181 0.074265577 0.014041501
-0.033813991 0.07298398 0.014025308
-0.035700962 0.071189798 0.014002627
-0.037581258 0.069658421 0.013987389
-0.03974475 0.068277538 0.013980773
-0.0416742 0.066829361 0.013968703
-0.043421891 0.065490104 0.013956939
-0.060178135 0.049967796 0.013767317
-0.065457873 0.044049662 0.013678112
-0.066943787 0.042508487 0.013656559
0.053751353 -0.038049616 0.0085018035
0.052397911 -0.039336573 0.0084855352
0.050503079 -0.04113831 0.0084627531
0.048872225 -0.042946555 0.0084357671
0.047241427 -0.044754852 0.0084087662
0.045346554 -0.04655654 0.0083859991
0.043722428 -0.048100907 0.008366474
0.041906822 -0.04975367 0.008346769
0.039675385 -0.051433839 0.0083326194
0.038321938 -0.052720789 0.0083163511
0.060625408 -0.027391795 0.0087026823
0.059529301 -0.028949242 0.0086747343
0.058162525 -0.030764097 0.0086435145
0.056346923 -0.032809485 0.008541082
0.054662455 -0.034693595 0.0083340677
0.053036578 -0.036239505 0.0083145313
0.051168937 -0.038102742 0.0080394531
0.049270127 -0.039908204 0.0080166366
0.047642581 -0.041455738 0.0079970453
0.045743786 -0.043261204 0.0079742437
0.043845024 -0.045066711 0.0079514263
0.042217478 -0.046614248 0.0079318648
0.040318679 -0.04841971 0.0079090474
0.038419914 -0.050225213 0.0078862309
0.036778186 -0.051698942 0.0081191128
0.034872781 -0.053445958 0.0082856724
0.032717478 -0.054958615 0.0083376989
0.031096689 -0.056370996 0.0083219111
0.029035801 -0.057772394 0.0083131604
0.062871039 -0.022165367 0.0088183843
0.061774924 -0.023722816 0.0087904213
0.060149908 -0.025810851 0.0086719384
0.058307104 -0.027683469 0.008285041
0.056742914 -0.02932127 0.0078172237
0.054856285 -0.031153034 0.0076823146
0.052725263 -0.032743946 0.0074190455
0.051102109 -0.034314983 0.0073153633
0.049398083 -0.036114819 0.0071944087
0.047397435 -0.037768662 0.0070346002
0.045673925 -0.039531715 0.0070817629
0.043952048 -0.041293263 0.0071289963
0.041948169 -0.042950153 0.0069691059
0.040226247 -0.044711661 0.0070163398
0.038505964 -0.046471659 0.0070635243
0.036495108 -0.048111491 0.0069757299
0.034766521 -0.049820039 0.0072032143
0.033097111 -0.051708862 0.0073476746
0.031204138 -0.053604927 0.0075102677
0.029564235 -0.055051163 0.0078273108
0.027656177 -0.056707684 0.0082814014
0.025759576 -0.058483396 0.0083427625
0.023686629 -0.059865661 0.0083347522
0.021996573 -0.061031055 0.0083271014
0.065116659 -0.016938947 0.0089340713
0.063745365 -0.018929703 0.0088978829
0.061908048 -0.020610368 0.0085442094
0.060333543 -0.02221466 0.0081887254
0.058589783 -0.024085039 0.0078281527
0.056668598 -0.025835028 0.0073454301
0.055026542 -0.027555205 0.0071993023
0.053381871 -0.029273942 0.0070660459
0.051275358 -0.030738415 0.0067483285
0.049364731 -0.032555152 0.0067253918
0.04772703 -0.034112345 0.0067057055
0.045816395 -0.035929088 0.0066827093
0.043905765 -0.037745822 0.0066597722
0.042268112 -0.039303049 0.0066400864
0.040357489 -0.041119784 0.0066171046
0.038446814 -0.042936489 0.0065941676
0.036809154 -0.044493716 0.0065744822
0.034898486 -0.046310414 0.0065514855
0.032987859 -0.048127152 0.0065285484
0.031463973 -0.050013769 0.0067477985
0.029582901 -0.051671695 0.0068122833
0.027772395 -0.053363193 0.0072082989
0.025865385 -0.055097755 0.0074378098
0.023960708 -0.056826852 0.0076673641
0.022251036 -0.058519337 0.0078950375
0.020353466 -0.060075037 0.0080717755
0.018731926 -0.061780043 0.008355449
0.017204218 -0.06249674 0.0083582038
0.066847555 -0.011171494 0.0090731476
0.065565825 -0.013420602 0.0090281805
0.064156778 -0.015376667 0.0086600585
0.062317345 -0.017235018 0.0082804831
0.06024218 -0.018856134 0.0077306251
0.058675587 -0.02048137 0.0072632208
0.057087999 -0.022094484 0.0069076545
0.055298988 -0.023890033 0.0068834312
0.053526212 -0.026000705 0.0068499409
0.051888559 -0.027557932 0.006830255
0.049977887 -0.029374629 0.0068072886
0.048326775 -0.031464148 0.0067725121
0.042594846 -0.036914326 0.0067036268
0.04123012 -0.038212001 0.0066872216
0.039865389 -0.039509676 0.0066708317
0.037135933 -0.042105034 0.0066380217
0.035771165 -0.043402668 0.0066216025
0.033860538 -0.045219406 0.00659865
0.031633157 -0.046921782 0.0065838159
0.030052727 -0.048320591 0.0065678074
0.027855344 -0.049984947 0.0065535828
0.025971996 -0.051681325 0.0065336688
0.024276664 -0.053366184 0.0066112443
0.022302739 -0.05496319 0.0068593188
0.020520408 -0.056625765 0.0072531672
0.018638125 -0.058483347 0.007527933
0.016985154 -0.060306985 0.0078407722
0.015105926 -0.06183299 0.0083425678
0.012702546 -0.062913187 0.0084149903
0.067295946 -0.0080661494 0.0091554206
0.065964028 -0.0099056084 0.0089228572
0.064290985 -0.011848372 0.0083651114
0.062269468 -0.013459058 0.0078040119
0.060417667 -0.015217874 0.0073042568
0.058757238 -0.017182577 0.0070231073
0.057428222 -0.019173509 0.0069862851
0.056050044 -0.021003479 0.0069547747
0.02466107 -0.050849836 0.006577523
0.023030117 -0.052140899 0.0065653753
0.02083944 -0.053539086 0.0065587037
0.018696571 -0.054962683 0.0065505398
0.017038513 -0.056613341 0.0066824122
0.015056594 -0.058182418 0.0069806958
0.013486831 -0.06018636 0.0076808254
0.011546792 -0.061679259 0.0081951525
0.0097883251 -0.063236982 0.0084501859
0.0079101473 -0.064378828 0.0084460936
0.068902545 -0.0030351104 0.0092752557
0.06766776 -0.0048532309 0.0092419339
0.065985136 -0.0064384015 0.008805261
0.064197794 -0.0083185025 0.0081324168
0.062379654 -0.010191553 0.0075852987
0.06069392 -0.011572191 0.007254587
0.059136499 -0.01331905 0.0071281977
0.016862229 -0.05376317 0.0066129686
0.015242484 -0.054610647 0.0066134189
0.013331854 -0.056427389 0.0065904222
0.01169542 -0.058408275 0.0068921009
0.0098173423 -0.060044218 0.007415771
0.0079315025 -0.061755918 0.0076872553
0.006175403 -0.063370593 0.0082347011
0.0042506815 -0.064921834 0.0084863799
0.068819977 0.00066445291 0.0093826884
0.067923531 -0.0011756254 0.0091768252
0.06635464 -0.0031250606 0.0087779798
0.064338259 -0.0046341503 0.0079650143
0.06252905 -0.0065087453 0.0073551717
0.060858794 -0.0084160715 0.0072426079
0.05952055 -0.010170926 0.0072126579
0.01365863 -0.054038703 0.006653992
0.011769512 -0.05500377 0.0066551347
0.0098642707 -0.056607604 0.0066382103
0.0082265763 -0.058164787 0.0066185244
0.0064624618 -0.059839666 0.0069612078
0.0045288601 -0.061510254 0.0075795115
0.0027699843 -0.063378192 0.0080196438
0.00094579934 -0.06467545 0.008543903
-0.00083806925 -0.065570205 0.0085454499
0.068900056 0.003831777 0.0094723515
0.068000317 0.00226202 0.0093298741
0.066121846 0.00041289072 0.0084161265
0.064231247 -0.0012126464 0.0076479018
0.06275773 -0.0028187924 0.0073742224
0.061784856 -0.0049009183 0.0073293163
0.0099180806 -0.054478429 0.0066984696
0.0085095335 -0.055402186 0.0066934633
0.0066662529 -0.056661319 0.0066854958
0.0047935918 -0.057934277 0.0066775442
0.0028669899 -0.059608579 0.0067214179
0.00093878538 -0.061483499 0.0074206744
-0.00085263519 -0.063373744 0.0078304987
-0.0026531529 -0.064820565 0.008503695
-0.0045476523 -0.06600634 0.0085895788
0.069169484 0.0075226296 0.0095741488
0.068029255 0.0057511949 0.0093098218
0.066343442 0.0041049635 0.0086020706
0.064526431 0.0023677705 0.0080963736
0.062458612 0.00067486172 0.0074790553
0.061885808 -0.00090878794 0.0074423412
0.00093353353 -0.057930451 0.0067365784
-0.0010320003 -0.059907787 0.0070671658
-0.0026832779 -0.061549556 0.0076884865
-0.0043712193 -0.063250899 0.0078798281
-0.0060747769 -0.064815119 0.0084651448
-0.0077069947 -0.065575741 0.0086501595
0.069086879 0.011222231 0.0096815657
0.068119697 0.00932761 0.0094110724
0.066576004 0.0075531867 0.0088642305
0.064625882 0.0059765312 0.0081539284
0.062812291 0.004128126 0.007572717
0.061611548 0.0022937884 0.0075384132
-0.00086634362 -0.056569405 0.0068031307
-0.0026678625 -0.058078878 0.0070374203
-0.0044921879 -0.059648201 0.0077706408
-0.0061231232 -0.061198957 0.0077510425
-0.007822576 -0.063138284 0.0081215547
-0.0095684398 -0.064648859 0.0086142337
-0.01166728 -0.065477416 0.0087134438
0.068814918 0.014398308 0.0097768642
0.068246864 0.012827724 0.0097404635
0.066517584 0.010993545 0.0087970812
0.064744949 0.0091528865 0.0080209086
0.06316597 0.0075813918 0.0076664388
0.062238201 0.0060065701 0.0076353862
-0.0023593809 -0.055416383 0.0068589752
-0.0039791376 -0.05626386 0.0068594106
-0.0057248869 -0.057941601 0.007201694
-0.0076676789 -0.059541438 0.0074219783
-0.0095874928 -0.061405931 0.0077146362
-0.011463246 -0.06314905 0.0078877676
-0.013217892 -0.06455826 0.0086725438
-0.015099548 -0.065392166 0.0087682763
0.067826889 0.016081857 0.0096973386
0.066580579 0.014706579 0.0090694111
0.064809643 0.012877822 0.0082935765
0.063200183 0.011042587 0.007765227
0.062400945 0.0089319497 0.007716855
-0.0055539859 -0.055337079 0.0069100144
-0.0073321299 -0.056127351 0.0069145085
-0.0093438877 -0.057728514 0.0068992334
-0.011305841 -0.059700169 0.0070870011
-0.013238411 -0.061131503 0.0076472182
-0.015021504 -0.062959559 0.0082365796
-0.016613198 -0.064407527 0.0086945724
0.069651812 0.021376412 0.0099643255
0.068489179 0.019955624 0.0096077975
0.066886105 0.018143326 0.0094135264
0.064875074 0.016598659 0.008566102
0.063081443 0.014773856 0.0078740865
0.062235668 0.012930695 0.0078341216
-0.01099629 -0.056355957 0.0069638989
-0.013070948 -0.057635993 0.0069588316
-0.014750143 -0.059318386 0.0070362305
-0.016606413 -0.06075801 0.0077418149
-0.01837506 -0.062806971 0.0084922714
-0.019906528 -0.063952275 0.0088829827
0.068166994 0.023149755 0.0090373531
0.066801168 0.021592429 0.0090135327
0.064917326 0.019783333 0.0088791642
0.063435122 0.018227121 0.0079678083
0.062152386 0.016661111 0.0079424614
-0.014907572 -0.056525137 0.007018737
-0.016265564 -0.057556704 0.0070098853
-0.018104684 -0.059236392 0.0074066482
-0.020166136 -0.061086774 0.0080520399
-0.021897297 -0.062582299 0.0089526968
-0.023237407 -0.063341349 0.0089513641
0.067537777 0.026579048 0.010145895
0.066959128 0.025083138 0.0093113557
0.064992264 0.023493793 0.0090957163
0.06322784 0.021692116 0.008237116
0.062017992 0.020126509 0.0080439495
-0.018060884 -0.055768959 0.007088576
-0.019970348 -0.057423696 0.0071952953
-0.022001673 -0.059233755 0.0079873316
-0.02382808 -0.060910463 0.0083631305
-0.025062183 -0.062371682 0.0090070469
0.066259935 0.028283475 0.010214306
0.065210186 0.027033783 0.0098306453
0.063237943 0.025402639 0.0088437255
0.06157304 0.02359958 0.0081504127
-0.0199164 -0.054447822 0.0071548042
-0.021809079 -0.055554856 0.0071519292
-0.023817869 -0.057521913 0.0073990342
-0.025664588 -0.058995843 0.0080125518
-0.027189417 -0.06095019 0.0088301813
-0.029005803 -0.061613459 0.0090890061
0.064720318 0.03008241 0.010289428
0.063478582 0.028820558 0.0096051572
0.061725393 0.027042365 0.00866374
0.060422175 0.025492311 0.0082222829
-0.023366023 -0.053918321 0.0072226538
-0.025276661 -0.05573507 0.0071997172
-0.027065745 -0.057364888 0.0077638803
-0.029082222 -0.059190989 0.0084926598
-0.030563222 -0.060518362 0.0091442075
0.063314915 0.031966083 0.010364939
0.061712742 0.030731769 0.0094368383
0.060156863 0.028995944 0.0083983066
-0.025728349 -0.052528117 0.0072986423
-0.027093083 -0.053825799 0.0072822073
-0.028781779 -0.055564091 0.0074010384
-0.030651206 -0.057074014 0.0081771808
-0.032354869 -0.058766346 0.0089139789
-0.033975419 -0.059641324 0.0092214663
0.061749082 0.034089245 0.010306846
0.059985012 0.032660697 0.0089905076
0.058865044 0.031336546 0.0084137535
-0.027558234 -0.051151145 0.007366071
-0.028909517 -0.051916536 0.0073647569
-0.030547205 -0.053473711 0.0073450711
-0.032361694 -0.0551605 0.0077412417
-0.034214456 -0.057117309 0.0087972945
-0.035793554 -0.058407687 0.0092846248
0.061210882 0.037564632 0.010557723
0.06019121 0.0360405 0.01002927
0.058464609 0.034306817 0.0088386042
0.057422675 0.03328979 0.0084918039
-0.031851381 -0.052376091 0.0073964633
-0.033995103 -0.05362827 0.0074766101
-0.0359338 -0.055392943 0.0084561352
-0.03760498 -0.056910098 0.0093552591
-0.038945094 -0.057669152 0.0093539273
0.060037758 0.039231244 0.010623447
0.05842787 0.037855577 0.0098081389
0.056698002 0.036237221 0.0085874479
0.056384679 0.034380831 0.0085389689
-0.035960287 -0.051987279 0.0074703367
-0.03780992 -0.053573914 0.0082659889
-0.039300766 -0.055250783 0.0090285596
-0.040495828 -0.056310128 0.0094166044
0.058165275 0.041096501 0.010455432
0.056604709 0.039623123 0.009586541
0.054881573 0.038146485 0.0086699976
-0.037923947 -0.050228011 0.0075508342
-0.039636057 -0.051689483 0.0082853902
-0.041142095 -0.053448565 0.0092357099
-0.042303935 -0.054680564 0.009490977
0.057688117 0.044518951 0.010811052
0.056661103 0.043009311 0.010283137
0.05490239 0.041299671 0.0092047984
0.053554721 0.039853401 0.0087392339
-0.039750498 -0.048717935 0.0076220478
-0.041254267 -0.050129883 0.0081047369
-0.042842295 -0.051598031 0.009254124
-0.044105355 -0.052787066 0.0095728096
0.056097914 0.046407208 0.010889518
0.054872431 0.044920366 0.010240267
0.053103443 0.043216083 0.0091761146
0.051699135 0.042220168 0.0088354805
-0.04132089 -0.047613692 0.0076776971
-0.043118559 -0.048277121 0.0079987543
-0.044763763 -0.049821783 0.0089175506
-0.046198461 -0.051030375 0.0096551683
0.054613285 0.048292857 0.010966294
0.053092957 0.046842739 0.010114139
0.051329434 0.045158781 0.0089254491
0.049691774 0.04360155 0.0089057628
0.048072025 0.042754076 0.0089061381
-0.044829931 -0.046423275 0.0077654426
-0.046442393 -0.047803704 0.0085008387
-0.048298616 -0.049562067 0.00956262
0.053207926 0.050176486 0.011041806
0.051564097 0.048491772 0.010018031
0.049772523 0.046795268 0.0089961737
0.048134826 0.045238081 0.0089764874
0.046224199 0.043421343 0.0089534912
0.044852722 0.041857537 0.0089295786
-0.046577994 -0.044820052 0.0078381263
-0.047994483 -0.046172269 0.0085713454
-0.049868513 -0.047961276 0.0095491391
-0.051147111 -0.049178798 0.0097838463
0.051533163 0.051855575 0.011115542
0.049748208 0.050384708 0.010162622
0.04794753 0.048694037 0.0091618607
0.046318397 0.047147349 0.0090589784
0.04440777 0.04533061 0.0090359962
0.042471569 0.044009123 0.0090276795
-0.048394423 -0.042910784 0.007920647
-0.049805284 -0.044268921 0.0086535988
-0.051671825 -0.046065789 0.0096310563
-0.052948531 -0.0472853 0.0098656788
0.049466401 0.053702809 0.011200112
0.047919393 0.052259728 0.010431929
0.046106823 0.050570294 0.0094939787
0.044501971 0.049056612 0.009141528
0.042591304 0.047239918 0.0091185318
0.04174557 0.045396719 0.009078566
-0.050127883 -0.040835295 0.008188555
-0.051681507 -0.04253719 0.0088820197
-0.053528089 -0.044214118 0.0095457844
-0.054749951 -0.045391802 0.0099475263
0.048061002 0.055586483 0.011275609
0.046403397 0.053936128 0.010169662
0.044582676 0.052250367 0.009231939
0.043078139 0.050689839 0.0092101321
0.041293863 0.048603658 0.009177506
-0.050922032 -0.037521839 0.0081138564
-0.05168983 -0.039303366 0.0083245775
-0.05336209 -0.040930919 0.0090538049
-0.055101585 -0.042609934 0.0095324405
-0.056294043 -0.043768805 0.010017664
0.046391569 0.057476718 0.01135534
0.044608504 0.055862531 0.010085602
0.042766254 0.054159638 0.009314429
0.042452928 0.052303251 0.0092659499
-0.051960018 -0.036430784 0.0081609916
-0.053459186 -0.037467308 0.0085543646
-0.055170998 -0.039029561 0.0091360034
-0.056865174 -0.040681601 0.0097397817
-0.058095459 -0.041875307 0.010099498
0.044590149 0.059370216 0.011437173
0.042797662 0.057765916 0.010167871
0.040949829 0.056068908 0.0093969787
-0.055173755 -0.035640698 0.0092332689
-0.056942619 -0.037102051 0.0093295006
-0.058571238 -0.038715001 0.010114078
0.042775396 0.060735811 0.01150407
0.041233234 0.059369419 0.010404506
0.039392877 0.057705436 0.0094677042
0.03803489 0.056673881 0.0094588222
0.035580575 0.054426834 0.0094318166
0.033687893 0.053319804 0.0094289407
-0.056839198 -0.033983205 0.010306788
-0.058192648 -0.035270162 0.010290518
-0.059399709 -0.037036113 0.010258281
0.041055288 0.062363185 0.011577025
0.03940044 0.061214089 0.010818927
0.03757146 0.059600446 0.0096332235
0.036211722 0.058317024 0.0095338188
0.034533672 0.055162963 0.0094689056
0.033441871 0.054124836 0.0094557963
-0.05968336 -0.031535596 0.010420447
-0.060766131 -0.032565143 0.010407436
0.039416552 0.063724399 0.011641104
0.037491433 0.062932 0.010747279
0.035747442 0.061485171 0.0098541426
0.034122322 0.05996678 0.0096130585
0.032757588 0.058669098 0.0095966533
-0.059131484 -0.027792379 0.0095189046
-0.06059026 -0.029822813 0.0099116964
-0.061874114 -0.031529643 0.010231714
-0.063197762 -0.032610439 0.010443253
0.035815749 0.064635441 0.010165856
0.034203071 0.063160494 0.0097034695
0.032565374 0.061603311 0.0096837832
0.03092771 0.060046077 0.0096640978
-0.05839498 -0.024893347 0.00959084
-0.059893314 -0.026447428 0.0095691374
-0.061796095 -0.028256629 0.0095462706
-0.063498236 -0.029951146 0.01007948
-0.064693026 -0.03114713 0.010508069
0.034060057 0.065933697 0.0097852135
0.032646123 0.064797029 0.0097741941
0.031141542 0.063236535 0.0097523872
0.029357312 0.061150316 0.009719762
-0.060071331 -0.022995273 0.0096709197
-0.061702263 -0.024546029 0.009651321
-0.063604996 -0.026355265 0.0096284691
-0.065201379 -0.027999669 0.010439411
-0.066177644 -0.029261468 0.010584844
0.031608168 0.065888025 0.0098213293
0.030516377 0.064849906 0.0098082209
-0.062012836 -0.021090589 0.0097551923
-0.063511193 -0.022644613 0.0097334906
-0.065413944 -0.024453865 0.0097106379
-0.066942416 -0.026073173 0.010688017
-0.068025187 -0.02710272 0.010675006
0.026856616 0.067603856 0.0099430932
0.025491849 0.066306226 0.0099267187
0.020305861 0.061375067 0.0098643806
-0.062601939 -0.01815863 0.009848333
-0.063430771 -0.019464124 0.0098235272
-0.065061696 -0.021014873 0.0098039294
-0.06696444 -0.022824125 0.0097810626
-0.068486504 -0.024450177 0.010758156
-0.069311932 -0.025750211 0.010733449
0.028013259 0.072459042 0.012065842
0.026916135 0.070520096 0.011326559
0.025550809 0.068796024 0.01083104
0.023836989 0.067064889 0.010188101
0.021997364 0.065061428 0.0099443551
0.020359667 0.063504234 0.0099246698
0.019001679 0.062472682 0.0099157877
-0.06388732 -0.016535448 0.0099145332
-0.06523972 -0.017562728 0.0099057108
-0.066870645 -0.019113474 0.009886113
-0.068629496 -0.020859178 0.010238071
-0.070076711 -0.022561926 0.010836623
0.027370553 0.073908769 0.012117247
0.025630416 0.072254106 0.012096337
0.023736084 0.070498839 0.011852539
0.021904174 0.068712242 0.010622242
0.020180941 0.066970691 0.010026845
0.019867612 0.065114304 0.0099783661
-0.06537804 -0.013993872 0.0090097105
-0.066919394 -0.015537595 0.0092198066
-0.068801299 -0.017245734 0.010069227
-0.070291243 -0.019009521 0.01075993
-0.071033269 -0.020689383 0.01090496
0.023797855 0.072915852 0.012143298
0.022191498 0.072075367 0.012143708
0.02028775 0.070431486 0.011375208
0.018364511 0.068879962 0.010109395
-0.066795118 -0.012094519 0.0090858527
-0.068578511 -0.013864487 0.0093957884
-0.070371628 -0.015791206 0.010368392
-0.071581498 -0.017295187 0.011010733
0.020380069 0.073572956 0.012214341
0.018485518 0.07227549 0.011705771
0.016677931 0.070683807 0.010550714
0.015449534 0.069484971 0.010171238
-0.067260303 -0.0094198138 0.0091696717
-0.068526469 -0.010440342 0.0092597818
-0.070240676 -0.012012221 0.0098745283
-0.071914375 -0.013840006 0.010848162
-0.072497286 -0.015899064 0.011064761
0.018561952 0.074806601 0.012277486
0.016904997 0.074183159 0.012184863
0.014946688 0.072542898 0.011350573
0.013335937 0.070970371 0.010337076
0.011742683 0.070375927 0.01025339
-0.068743825 -0.0069861864 0.0092621716
-0.070257366 -0.0086470507 0.0097045293
-0.072084479 -0.010187725 0.010555324
-0.073218375 -0.011579965 0.011199721
0.015420415 0.075941041 0.012358001
0.013504979 0.074252047 0.011838501
0.011562533 0.072654583 0.010877385
0.0099811684 0.071446851 0.010311029
-0.069228575 -0.0029795221 0.0093845492
-0.070041828 -0.0048142532 0.0094276695
-0.071831532 -0.0067806705 0.010399121
-0.073410556 -0.0084953997 0.011179999
-0.073934585 -0.010052977 0.011254466
0.014982445 0.079517409 0.012467316
0.013618985 0.077834532 0.012439834
0.011718194 0.076061562 0.012292909
0.0097795511 0.074439645 0.011483888
0.0080124596 0.072779275 0.010593685
0.0061857058 0.071845472 0.010380403
-0.070151977 -0.0015717524 0.009439039
-0.071683101 -0.002969926 0.0099558979
-0.073446982 -0.0048311115 0.010959161
-0.074482799 -0.0066587706 0.011360238
0.013685732 0.080473959 0.01251456
0.012332251 0.07918705 0.012498292
0.0098726163 0.07743708 0.012485625
0.0080209924 0.07615032 0.012365803
0.0061083874 0.074401967 0.011098111
0.0043477244 0.072903104 0.010438799
0.0024721038 0.072470292 0.010455017
-0.07051383 0.0023786055 0.0095579382
-0.071675576 0.00041351403 0.0098527558
-0.07351131 -0.0013865002 0.010880997
-0.074993178 -0.0031598345 0.011468438
0.0064749201 0.077395663 0.012536303
0.0046748081 0.076072484 0.012071054
0.0026586305 0.074550942 0.011412344
0.00090296217 0.073147103 0.010623467
-0.00073150027 0.072194763 0.010496011
-0.070788041 0.0055811475 0.0096539957
-0.071853504 0.0038852021 0.009894466
-0.073337965 0.0020519425 0.01059218
-0.074873805 0.00029462337 0.011565739
0.0033066799 0.077474341 0.012586931
0.001142601 0.076235771 0.012384315
-0.00082964759 0.074721485 0.011570553
-0.0026074527 0.07315924 0.010783219
-0.0047359858 0.071850315 0.010547267
-0.070243426 0.0095622931 0.0097599253
-0.07161738 0.0075408197 0.009953782
-0.073354386 0.0057204473 0.010822799
-0.074934505 0.0039633363 0.011588574
-0.075563744 0.002136529 0.011629132
-0.0011306177 0.07751409 0.012655823
-0.0025446385 0.076412648 0.012534611
-0.0044876286 0.074616574 0.011480459
-0.0062760226 0.072898358 0.010850956
-0.0081946095 0.072024979 0.010605101
-0.0098143602 0.071177498 0.010605493
-0.068961978 0.01459039 0.0098846396
-0.069953375 0.01283956 0.0098495679
-0.071385331 0.01112501 0.010108044
-0.07308659 0.0093697282 0.010644403
-0.074907809 0.0075360811 0.011592139
-0.075998358 0.0058448352 0.011742169
-0.0043443199 0.077884413 0.012715497
-0.0060656094 0.076561376 0.012489405
-0.0080242427 0.075054035 0.011997798
-0.0097000999 0.073206842 0.011106667
-0.011665797 0.071702838 0.010648827
-0.013554868 0.070737734 0.010649969
-0.068335332 0.018303163 0.0099816127
-0.06953603 0.016468782 0.0099473083
-0.071425438 0.014408639 0.010667427
-0.073355481 0.012884465 0.011236796
-0.07482589 0.011056995 0.011802382
-0.07591828 0.0090121627 0.011831832
-0.0075593158 0.078201912 0.01277369
-0.0096726147 0.07658308 0.012676124
-0.011374477 0.074888617 0.01215325
-0.013365236 0.073216714 0.011531143
-0.01523441 0.071495451 0.010970227
-0.016978629 0.070183612 0.010686344
-0.067965247 0.021702742 0.010073534
-0.069529124 0.019932611 0.010296737
-0.071143411 0.01819236 0.010664499
-0.072986893 0.016320026 0.011371463
-0.074759416 0.014793811 0.011980062
-0.075459503 0.013226538 0.011945764
-0.011225468 0.07739497 0.012806515
-0.013023893 0.076420903 0.012806015
-0.014806173 0.074992888 0.012592141
-0.01684281 0.073313609 0.011941389
-0.018492101 0.07153485 0.01133187
-0.02051096 0.070005573 0.010878097
-0.022875832 0.06873218 0.010734726
-0.02428438 0.067808419 0.01072972
-0.06656763 0.027009472 0.010204489
-0.067809276 0.024970757 0.010255869
-0.069426037 0.023226857 0.010673183
-0.071110494 0.021520402 0.011025901
-0.07301528 0.01976666 0.011846005
-0.074459329 0.017955691 0.012066208
-0.075379424 0.016393863 0.012035442
-0.01542307 0.078555621 0.012903892
-0.016519217 0.076998211 0.012875944
-0.01841405 0.075196482 0.012853161
-0.020383071 0.073487096 0.012417296
-0.022189606 0.071750723 0.011882876
-0.024121927 0.069820799 0.011340844
-0.025845889 0.06835746 0.010880494
-0.027765408 0.06709592 0.010762432
-0.029935556 0.065551959 0.010751245
-0.063235156 0.033888865 0.010351012
-0.064501479 0.032269169 0.010323864
-0.065974429 0.030431837 0.010404797
-0.067485176 0.028534224 0.010717028
-0.069479533 0.027012357 0.011678348
-0.071081169 0.025082007 0.011933263
-0.072614521 0.02335052 0.012192853
-0.07377281 0.02142491 0.012155277
-0.020220812 0.076878823 0.012929029
-0.022110304 0.075288244 0.012912228
-0.023963036 0.073289588 0.012740241
-0.02572608 0.071503207 0.012441944
-0.027405396 0.070008762 0.012174553
-0.029375218 0.068375401 0.011824264
-0.031257339 0.066582114 0.011262764
-0.033084963 0.065051049 0.011035079
-0.034614936 0.063648112 0.010893112
-0.036612026 0.061875228 0.010747677
-0.038862046 0.06018104 0.010733384
-0.040226821 0.058883402 0.010716994
-0.057149548 0.042792305 0.010513589
-0.058787249 0.041235123 0.010493903
-0.060438361 0.039145604 0.010459171
-0.062222898 0.037365813 0.010635419
-0.063868418 0.035642494 0.010744484
-0.065651685 0.033914391 0.011055651
-0.067408711 0.032082602 0.011425982
-0.069079809 0.030246284 0.012003265
-0.070894308 0.028695663 0.012319968
-0.072214954 0.026615551 0.012280449
-0.023453856 0.076483697 0.012967039
-0.025139108 0.074910693 0.012947627
-0.026929373 0.072766796 0.012913443
-0.02881087 0.07149297 0.012905613
-0.030963087 0.069961779 0.012894525
-0.032934614 0.068226859 0.012541321
-0.03464067 0.066745795 0.01219136
-0.036493238 0.064859979 0.011760567
-0.038201559 0.062993437 0.011496712
-0.040028214 0.061456859 0.011288044
-0.041816384 0.059892453 0.01123198
-0.043668047 0.058147561 0.010891329
-0.045877956 0.056626905 0.010738519
-0.047515657 0.055069719 0.010718849
-0.04942628 0.053252976 0.010695851
-0.051336907 0.051436238 0.010672915
-0.052974567 0.049879011 0.010653228
-0.054745369 0.047806751 0.01083515
-0.056453519 0.045944627 0.010843561
-0.058258738 0.044300757 0.011002585
-0.0599792 0.042368319 0.010973443
-0.061760433 0.04072278 0.011191593
-0.063578859 0.039074901 0.011505605
-0.065544181 0.03731402 0.011929729
-0.067328818 0.035488009 0.012210329
-0.069130607 0.03366996 0.012435795
-0.070526533 0.032195404 0.012414787
-0.032804504 0.070271567 0.012931533
-0.034201428 0.069355458 0.012926568
-0.03602948 0.068106733 0.012918648
-0.038180985 0.066601887 0.012908309
-0.040094949 0.064921066 0.012805915
-0.04176376 0.063406244 0.012621175
-0.04372957 0.061646186 0.01235056
-0.045676209 0.059868675 0.012162493
-0.047329064 0.058333755 0.01206031
-0.049165789 0.056306154 0.011857008
-0.0511306 0.054719061 0.012014627
-0.052759811 0.053169891 0.011995024
-0.054660562 0.051362522 0.011972196
-0.056478586 0.049523719 0.012197322
-0.058106095 0.047976136 0.012177761
-0.060004894 0.046170671 0.012154928
-0.061815832 0.044339653 0.012380172
-0.063411802 0.042786084 0.012443322
-0.065006904 0.040840764 0.012578596
-0.066884995 0.038896382 0.012551482
-0.068779826 0.037094645 0.0125287
-0.070450298 0.035211936 0.012500183
-0.071777493 0.033471584 0.012470509
-0.041630577 0.066000856 0.012943719
-0.04324805 0.064720459 0.012931668
-0.045393575 0.063453197 0.012928057
-0.04728841 0.061651465 0.01290529
-0.056221224 0.053157628 0.012797924
-0.058116101 0.051355939 0.012775143
-0.059482921 0.049541123 0.012743938
-0.061662108 0.047890484 0.012729842
-0.063529924 0.046208154 0.012710083
-0.064619385 0.044914678 0.012689595
0.054208379 -0.023261065 0.0059176106
0.052610625 -0.025093259 0.0058894129
0.050966155 -0.026656879 0.0058696545
0.04904763 -0.02848112 0.0058465879
0.04738969 -0.030579271 0.0058117057
0.046005767 -0.032416753 0.0057800873
0.044087239 -0.034240995 0.0057570352
0.042067189 -0.035848785 0.0057417522
0.040263694 -0.037354995 0.0057260557
0.03866867 -0.039080314 0.0057009086
0.03692792 -0.040824912 0.0056773932
0.034782216 -0.042567138 0.0056601777
0.033137742 -0.044130761 0.0056404192
0.031224629 -0.045741212 0.0056234109
0.029040147 -0.047505379 0.0056061163
0.027402431 -0.048801757 0.0055939122
0.02576476 -0.050098173 0.0055817221
0.057638567 -0.01666094 0.0060546268
0.056528747 -0.018237846 0.006026316
0.055144861 -0.020075368 0.0059947274
0.053226337 -0.021899611 0.0059716604
0.051307812 -0.023723854 0.0059486087
0.049663339 -0.025287472 0.0059288503
0.047744814 -0.027111715 0.0059057684
0.045826286 -0.02893596 0.0058827316
0.044181857 -0.03049962 0.0058629732
0.042263333 -0.032323863 0.0058398913
0.040344805 -0.034148104 0.0058168545
0.038700335 -0.035711728 0.0057970812
0.037055861 -0.037275344 0.0057773227
0.035137337 -0.039099589 0.0057542413
0.033218808 -0.040923826 0.0057312041
0.031574383 -0.042487495 0.0057114307
0.029655857 -0.04431174 0.0056883642
0.027737333 -0.046135973 0.0056653121
0.026092861 -0.047699597 0.0056455536
0.024174334 -0.049523838 0.0056224721
0.022259204 -0.051214479 0.0056032049
0.020357547 -0.052370593 0.005599061
0.018993929 -0.053406388 0.0055901497
0.058092531 -0.013516756 0.0061379289
0.056870393 -0.015304819 0.0061052856
0.055225927 -0.016868439 0.0060855118
0.053581502 -0.018432099 0.0060657533
0.051672358 -0.020270025 0.0059587541
0.049780566 -0.022136861 0.0056839543
0.048133876 -0.023702662 0.0056641563
0.04624467 -0.025591092 0.0053053051
0.028329333 -0.042796157 0.0048516626
0.026332693 -0.044371285 0.0052825995
0.024529496 -0.046056326 0.0057165795
0.022610972 -0.047880571 0.0056934981
0.020692443 -0.049704816 0.0056704609
0.019047974 -0.051268429 0.0056506875
0.017226815 -0.052768253 0.005635452
0.060842562 -0.0063114502 0.0063026971
0.05984509 -0.0076772291 0.0062787491
0.058489289 -0.0094619617 0.0062482134
0.056964975 -0.011563401 0.0062111937
0.055067781 -0.013409816 0.0060204095
0.053474117 -0.015033171 0.0055812858
0.051845856 -0.016625244 0.0053937156
0.049942624 -0.018485177 0.0051818057
0.018888649 -0.047706872 0.0055244206
0.017224025 -0.049351256 0.0057335291
0.015305537 -0.051175546 0.005710477
0.013365738 -0.052877661 0.005691241
0.011278907 -0.053856593 0.0056950343
0.061471786 -0.0025833123 0.0064000678
0.060500424 -0.0044554025 0.0063611851
0.058704022 -0.006258362 0.0063368897
0.0570747 -0.0078344764 0.0062053441
0.055206344 -0.0097058453 0.0057910797
0.053347398 -0.011597983 0.0052649193
0.051696155 -0.013168032 0.0052450732
0.050044961 -0.014738129 0.0052252267
0.013481587 -0.04925837 0.0057933335
0.011563056 -0.051082615 0.0057702963
0.0099186013 -0.052646227 0.0057505229
0.0082775215 -0.054076251 0.0057345335
0.0061909347 -0.055495217 0.0057256618
0.0044640894 -0.056789357 0.0057148924
0.060844045 -0.00096327876 0.0064561423
0.059071139 -0.0027985743 0.0063471678
0.057249565 -0.0046920185 0.0056258398
0.055630431 -0.0062844381 0.0053825495
0.053704005 -0.0081161829 0.0053593982
0.051777579 -0.0099479286 0.0053362311
0.05012634 -0.011517981 0.0053163851
0.010046824 -0.049335938 0.0056434399
0.0083552282 -0.051002961 0.0058215489
0.0067107617 -0.05256658 0.0058017904
0.004792233 -0.054390825 0.005778709
0.0028737031 -0.056215066 0.0057556718
0.0015168471 -0.056983616 0.0057543148
0.06070235 0.0022491766 0.0065504857
0.059269678 0.00072658987 0.006428624
0.057349142 -0.00094179477 0.0056972145
0.055450194 -0.0027893037 0.0054856031
0.053799003 -0.0043593957 0.0054657566
0.051872578 -0.0061911433 0.0054426049
0.0048367525 -0.050840776 0.0052129049
0.0030476586 -0.05257374 0.005523968
0.0013103425 -0.0545718 0.0058266828
-0.00010946449 -0.055713128 0.0058156052
0.061742052 0.0081064124 0.0067026978
0.060865499 0.0059888689 0.0066553182
0.059246853 0.004152325 0.0065439385
0.057671845 0.0026661551 0.0058810799
0.055545188 0.00096748164 0.005591962
0.053618766 -0.00086426357 0.0055687958
0.051967528 -0.0024343119 0.0055489494
0.0013335331 -0.050768208 0.0050350158
-0.00038446987 -0.05250825 0.0055115544
-0.002179309 -0.054096162 0.0058935964
-0.0040450483 -0.054795373 0.0059020217
0.062083703 0.011039433 0.0067816526
0.061247934 0.0097231548 0.0067566498
0.059378326 0.0078830067 0.0063988776
0.057553001 0.0060193771 0.0057062577
0.055901803 0.0044492865 0.0056864112
0.053975374 0.0026175343 0.0056632743
0.052048948 0.00078578666 0.0056401077
-0.002166105 -0.050764874 0.0049884967
-0.0040188394 -0.0523986 0.005636889
-0.0058731451 -0.054004475 0.0059526232
-0.0080661187 -0.055141203 0.0059534716
0.061195374 0.012933376 0.0068495576
0.059485156 0.01150973 0.0065619438
0.057647992 0.009776162 0.0058126315
0.055721566 0.0079444125 0.0057894797
0.054070327 0.0063743638 0.0057696332
0.052620277 0.0042622699 0.0057311472
-0.0059240083 -0.050671544 0.0050485525
-0.007570134 -0.052334175 0.0057405778
-0.009382437 -0.05430628 0.0059975446
-0.011229924 -0.055437051 0.005993308
-0.012644321 -0.056364596 0.0059882589
0.060888976 0.016684746 0.0069618947
0.059505098 0.014847225 0.0069302758
0.057872996 0.013480443 0.0061155693
0.055816561 0.011701204 0.0058958237
0.053890139 0.0098694563 0.0058726571
0.052782502 0.0085544325 0.0058518066
-0.0094504626 -0.050697517 0.0054864301
-0.011192843 -0.052267928 0.0060067042
-0.012850814 -0.053952768 0.0060606268
-0.014671242 -0.055422898 0.0060462323
0.0609768 0.02015892 0.0070602335
0.059599672 0.01858864 0.0070361984
0.057775639 0.0167569 0.0063444651
0.056173168 0.015182999 0.0059902868
0.054246746 0.013351256 0.0059671355
0.05232032 0.011519509 0.0059439694
0.051742766 0.0099227903 0.0059069428
-0.010976451 -0.048666544 0.0051831957
-0.012865922 -0.050425548 0.0054117008
-0.014674773 -0.0520356 0.0061434978
-0.016593289 -0.053859834 0.0061204317
-0.018484803 -0.05461511 0.0061276262
0.060530011 0.023646332 0.0071671247
0.059954837 0.022056149 0.0071302913
0.058036305 0.020231903 0.0071072248
0.056254555 0.018403152 0.0060814456
0.054603353 0.016833052 0.0060615991
0.052676931 0.015001307 0.0060384627
0.05146629 0.01315178 0.006003818
-0.014472689 -0.048848234 0.0052313707
-0.016363582 -0.050615299 0.0054318407
-0.018170619 -0.052240711 0.0061075981
-0.020066215 -0.053684473 0.006178468
0.059374381 0.025546892 0.0072393049
0.058130886 0.023973325 0.0072131329
0.056402329 0.022106171 0.0071859392
0.054736666 0.019820662 0.0062882039
0.053033534 0.018483104 0.0061329114
0.051806342 0.016687715 0.006100113
-0.016304122 -0.046923198 0.0053145783
-0.018230544 -0.048754942 0.0052914266
-0.019879086 -0.050423928 0.0054225982
-0.021640517 -0.051980428 0.0057126922
-0.023604134 -0.052498408 0.0057662432
0.058787126 0.028770434 0.00734078
0.057951406 0.027454119 0.0073157772
0.05630694 0.025890501 0.0072960039
0.055210665 0.024848046 0.0072828163
-0.017970221 -0.045539245 0.0053796968
-0.020062026 -0.046829868 0.0053746044
-0.02171321 -0.048399948 0.0053547574
-0.023364456 -0.049970005 0.0053349114
-0.024971781 -0.051474631 0.0055385972
0.057801429 0.030590368 0.0074080541
0.056402858 0.029101796 0.0072755013
0.054588221 0.027302349 0.0064456412
0.052682113 0.025831157 0.0063491128
0.051049016 0.024976647 0.0063495138
-0.021635218 -0.045313992 0.0054421308
-0.023283031 -0.046749901 0.0054260693
-0.025145341 -0.048409149 0.0055888011
-0.026809057 -0.050134495 0.0061831763
-0.02854833 -0.050621506 0.0063958587
0.056469109 0.032304313 0.007477588
0.054716878 0.030816194 0.0070614028
0.052768067 0.029230159 0.0064453632
0.050841633 0.027398407 0.0064222114
0.049617067 0.026009541 0.0064010401
-0.023468703 -0.043469436 0.0055230493
-0.025114462 -0.044824861 0.0055092918
-0.026765706 -0.046394918 0.0054894458
-0.028586425 -0.048086468 0.005968946
-0.030446675 -0.050184872 0.0063603926
-0.032534387 -0.051699135 0.0064258007
0.055480883 0.035537809 0.0075854468
0.054645155 0.034221489 0.0075604292
0.052990638 0.032784548 0.0074534938
0.05092692 0.031150784 0.0066119577
0.049010206 0.029323449 0.0065054037
0.047909379 0.028276749 0.0064921384
-0.0255835 -0.042128071 0.0055937949
-0.026945934 -0.042899776 0.0055924696
-0.028597144 -0.044469882 0.0055726231
-0.030523565 -0.046301622 0.0055494863
-0.032310471 -0.048543453 0.0058202636
-0.034106322 -0.050027728 0.0063548116
-0.035512146 -0.05098341 0.0064917919
0.05391752 0.037181076 0.0076564583
0.052821208 0.036138665 0.0076433006
0.051176775 0.034575 0.0076235416
0.049320731 0.032781374 0.0070167803
0.047440391 0.030973502 0.006576716
-0.028741354 -0.04167375 0.0056550573
-0.030166948 -0.042819817 0.0056439498
-0.03209338 -0.044651568 0.0056208135
-0.034019802 -0.046483312 0.0055976319
-0.035824575 -0.048174988 0.0060768942
-0.037342854 -0.049333483 0.0065670791
0.052469201 0.039142389 0.0077348682
0.051257845 0.037781931 0.0077143265
0.049649347 0.036241975 0.0073611694
0.047788028 0.034450114 0.0067545637
0.046102569 0.032694526 0.0066465181
-0.030112667 -0.040673085 0.0057046921
-0.031736773 -0.041169774 0.0057152617
-0.033663195 -0.043001518 0.0056921253
-0.035589613 -0.044833258 0.0056689586
-0.037453331 -0.046596408 0.005896931
-0.038912963 -0.04795745 0.0066305362
0.051072955 0.041048944 0.0078108981
0.049452089 0.03971222 0.007630507
0.047891948 0.038212128 0.0067775534
0.046402328 0.036271863 0.0067446115
0.045374442 0.034246936 0.00670216
-0.033546925 -0.039367281 0.0057946378
-0.035494633 -0.041076485 0.0057753175
-0.037580885 -0.042906124 0.0060405037
-0.039207079 -0.04474185 0.0064414288
-0.041011017 -0.046300862 0.0067100995
-0.042628419 -0.04679554 0.0067206025
0.04922739 0.04211092 0.0078695351
0.047606587 0.041482639 0.0078762388
0.045996934 0.040080063 0.0075270673
0.045221347 0.038815439 0.0068355845
-0.035417765 -0.038035225 0.0058613694
-0.037326101 -0.039151397 0.0058585252
-0.039335046 -0.041057281 0.0065848618
-0.041190494 -0.042820062 0.0068127443
-0.04283493 -0.044383734 0.0067929705
-0.044254735 -0.045525059 0.0067818929
-0.039171092 -0.037763029 0.0059265168
-0.040903069 -0.039506257 0.0061757984
-0.042723104 -0.041042119 0.0067870948
-0.044398326 -0.042740416 0.0068639969
-0.045768701 -0.044043455 0.0068475162
-0.041204944 -0.036254883 0.0060008341
-0.042653773 -0.037408054 0.005989878
-0.044304978 -0.038978156 0.0059700315
-0.046071243 -0.040669579 0.0065112305
-0.047592647 -0.042126279 0.0069303722
0.040764451 0.045545869 0.0079543665
0.040179081 0.04394006 0.0080601554
-0.044494249 -0.035840802 0.0060629169
-0.04613645 -0.037053067 0.0060532237
-0.047916364 -0.038764071 0.0065315343
-0.049142499 -0.039948523 0.0070165214
0.041684601 0.050587934 0.0082279285
0.040314194 0.049284946 0.0082114637
-0.047706261 -0.035403013 0.006124536
-0.049458127 -0.037098303 0.0066862404
-0.050445314 -0.038579121 0.0070757023
0.040823001 0.052481208 0.0082954215
0.03928547 0.050914928 0.0082739377
-0.048175253 -0.032706264 0.0062090545
-0.049276076 -0.033752959 0.0061958483
-0.051222172 -0.035236474 0.0069833803
-0.0535856 -0.035827033 0.0072026164
0.039105989 0.05439572 0.0083765676
0.037461523 0.052832104 0.0083568087
-0.049221799 -0.031606227 0.0062565901
-0.050849281 -0.032237098 0.0062633599
-0.052790809 -0.033486694 0.0062571396
-0.053832624 -0.035018675 0.0072295847
0.037533615 0.055682682 0.0084375013
0.036419298 0.053927604 0.0084041441
0.035431068 0.057161093 0.0085120182
0.033800151 0.056131922 0.0085073831
0.032690331 0.054555021 0.0084790867
0.034388844 0.058256593 0.0085593686
0.032497332 0.05750132 0.0085665789
0.029698668 0.063186474 0.0087724319
0.028328303 0.061883446 0.0087559661
0.027492579 0.060567129 0.0087309489
0.030583989 0.066462532 0.0088529261
0.028837122 0.065079719 0.0088399239
0.027025485 0.063252851 0.008815147
0.025279533 0.061905637 0.0088031571
0.023272993 0.060832337 0.0088029979
0.027380651 0.066720359 0.0089092255
0.025198177 0.065036379 0.008894234
0.023557108 0.063606359 0.0088782599
0.02191264 0.062042747 0.008858501
0.018404448 0.065630488 0.0090149976
0.0166141 0.064066723 0.0089974478
0.01445475 0.06329754 0.0090083415
-0.064479001 -0.011756971 0.0080596292
-0.065102942 -0.01290651 0.0073691378
0.016701419 0.06752032 0.0090952395
0.014765076 0.065790072 0.0085748686
0.013235935 0.064446941 0.008059402
-0.064206652 -0.0081421891 0.0071586682
-0.06483192 -0.010131138 0.0073255678
-0.066069387 -0.011182675 0.0081003932
0.014913356 0.068741344 0.0091575701
0.013202082 0.067420222 0.0087288758
0.011262369 0.066062257 0.0081359027
-0.065060683 -0.0065099178 0.0072185616
-0.066383533 -0.0082737356 0.0078551508
0.013547634 0.069737926 0.009207
0.011624419 0.06887982 0.0091207903
0.0096835028 0.067354523 0.0081970906
0.0080504017 0.066500008 0.0081974771
-0.0649793 -0.0032897722 0.0073097204
-0.066419281 -0.0049812431 0.0075560524
-0.067530617 -0.0066196839 0.0080868807
