# .PCD v0.7 - Point Cloud Data file format
VERSION 0.7
FIELDS x y z
SIZE 4 4 4
TYPE F F F
COUNT 1 1 1
WIDTH 1278
HEIGHT 1
VIEWPOINT 0 0 0 1 0 0 0
POINTS 1278
DATA ascii
0.010185612 -0.066613875 0.010303692
0.011355828 -0.068505719 0.011239446
0.012595016 -0.069914199 0.011366712
-0.057629257 0.043539423 0.013361692
-0.056691885 0.04179756 0.012952259
-0.054882299 0.039696626 0.01167688
-0.054046769 0.038029596 0.011267384
0.011121154 -0.063812315 0.0095291948
0.012276413 -0.065341808 0.0098827686
0.013283981 -0.067647107 0.011082915
0.014395567 -0.069027513 0.011440315
-0.055670802 0.045290031 0.013467532
-0.054580189 0.043073609 0.012643211
-0.053014774 0.041293476 0.011511353
0.012968879 -0.063056327 0.0095996317
0.014581925 -0.064213499 0.009701537
0.015477448 -0.066254802 0.010557279
0.016778842 -0.067994222 0.01153304
-0.0541646 0.048488479 0.013609827
-0.053608865 0.046755422 0.013455361
-0.052437939 0.044506732 0.012298364
-0.051043801 0.042861998 0.011500304
0.016805267 -0.063256182 0.0096877692
0.017781114 -0.065168418 0.010274512
0.019055484 -0.067019321 0.011176487
0.020379363 -0.068100721 0.011618445
-0.052229382 0.049987428 0.013706841
-0.051470287 0.048190314 0.013110506
-0.050263077 0.045943998 0.012065679
-0.049779601 0.044199262 0.011575437
0.01855067 -0.062671542 0.0097500496
0.019731097 -0.063805938 0.0099921199
0.021289052 -0.065565452 0.010823442
0.022486171 -0.067281589 0.011697309
-0.050667752 0.051247809 0.013786798
-0.049324937 0.04963075 0.012765983
-0.048353545 0.047532558 0.011720215
0.021803528 -0.062290125 0.009842854
0.023330532 -0.06411922 0.010487686
0.024689732 -0.066309042 0.011640689
-0.049994458 0.054309044 0.013904026
-0.0486902 0.052725147 0.013383753
-0.047197033 0.051076725 0.012309987
-0.046332575 0.049580209 0.01183732
0.024027461 -0.061293896 0.0099304672
0.025594352 -0.062807545 0.010253043
0.026850784 -0.065185465 0.011473592
0.027416524 -0.066764362 0.011836036
-0.046531416 0.054498576 0.01349529
-0.0450183 0.05236651 0.012211552
-0.044827774 0.050541162 0.011906058
0.027670331 -0.061566416 0.010136559
0.029000074 -0.063661925 0.011087412
0.029998615 -0.065536477 0.011940097
-0.045511521 0.057171829 0.014108725
-0.044695534 0.055699058 0.013413228
-0.043356828 0.053728692 0.012190075
0.029699681 -0.06049807 0.010096611
0.030692507 -0.062211283 0.010690337
0.031918209 -0.064029157 0.011703397
-0.043508966 0.058976896 0.014217443
-0.042448837 0.057133794 0.013515804
-0.041520774 0.055075627 0.012136688
0.031866439 -0.05946767 0.010183946
0.032808065 -0.060847878 0.010495455
0.034407079 -0.063001536 0.01171518
-0.041353341 0.060748171 0.014328822
-0.040267576 0.058584172 0.013283722
-0.039259207 0.056746975 0.012247428
0.035052158 -0.059685595 0.01025544
0.036541831 -0.061625842 0.011502201
0.038404603 -0.062810242 0.011236298
-0.04183374 0.065133847 0.014461122
-0.040833179 0.063843191 0.014443388
-0.039638579 0.061974764 0.014411469
-0.038018208 0.060020596 0.01338642
-0.037002012 0.058188409 0.012350518
0.037207637 -0.058706596 0.010340791
0.038733047 -0.060408697 0.010572718
0.039352655 -0.062172014 0.010947064
-0.038965289 0.065036006 0.014528668
-0.03777064 0.063167609 0.014496748
-0.036143791 0.061217584 0.013472016
-0.034470279 0.059407678 0.012453047
0.039842356 -0.056987431 0.012463963
0.040476568 -0.059213702 0.012406473
-0.03590275 0.064360425 0.014582057
-0.034615017 0.06216513 0.013707693
-0.032999411 0.06021449 0.012515831
0.040963065 -0.056271754 0.01251513
0.042359661 -0.057221789 0.012518384
0.047051102 -0.056330889 0.012663434
-0.020151826 0.073541723 0.013270893
-0.018402038 0.072186023 0.013269474
-0.017680241 0.071057096 0.013250195
0.056138564 -0.044212624 0.013285944
0.057094246 -0.045707364 0.013260408
-0.018100275 0.075028487 0.01337037
-0.016897231 0.073146984 0.01333824
-0.015867041 0.071950026 0.013324293
0.053062916 -0.03775657 0.01342217
0.057214722 -0.042604435 0.01336531
0.058588542 -0.044753116 0.013328602
0.059884816 -0.046451345 0.013304822
-0.015843071 0.076469921 0.013473431
-0.014640031 0.074588411 0.013441301
-0.013467071 0.072990529 0.013417754
0.055956203 -0.035756931 0.012558454
0.056412704 -0.037109427 0.012925635
0.057613954 -0.0391252 0.013322687
0.059022903 -0.041318174 0.013452214
0.060456418 -0.043560289 0.01341391
0.061869133 -0.045605186 0.013381613
-0.01394104 0.07747256 0.013553297
-0.012759082 0.075789578 0.013527155
-0.011556041 0.073908068 0.013495055
-0.010217451 0.072643079 0.013486498
0.057360411 -0.034708198 0.011626728
0.058113579 -0.036334887 0.012020811
0.059646573 -0.038241923 0.012345497
0.06105037 -0.040427227 0.012530702
0.062342748 -0.042401388 0.013387334
0.063757882 -0.044609558 0.013460915
0.065632313 -0.046306975 0.013451431
-0.010896125 0.077250242 0.014371775
-0.0096461307 0.075074382 0.013914119
-0.0083697289 0.073399074 0.013556935
0.060308792 -0.036005083 0.011656879
0.061782993 -0.036653537 0.011671985
0.063101001 -0.038688716 0.012388256
0.064622708 -0.041036788 0.013266069
0.065999344 -0.043178163 0.013563249
0.067432858 -0.045420274 0.013524975
-0.0087769041 0.078693889 0.014721725
-0.0073472857 0.07645531 0.014572227
-0.0059742602 0.074292853 0.013645473
-0.0042594704 0.073268116 0.013654093
0.064225823 -0.035264045 0.011920905
0.0653212 -0.037350859 0.012646223
0.066807255 -0.039504703 0.013703916
0.068240769 -0.04174681 0.013665613
-0.0050890381 0.077880301 0.014785992
-0.0037021663 0.075710423 0.01397052
-0.002446264 0.074161023 0.01372816
0.065951802 -0.032401506 0.011914561
0.066457964 -0.034022309 0.012318632
0.06773673 -0.036021546 0.013174091
0.069048733 -0.038073316 0.013806251
0.070073895 -0.040225331 0.013760852
-0.0032145781 0.079077333 0.014871588
-0.0014783496 0.076993883 0.014095375
-0.00025686648 0.075294182 0.013819464
0.06759657 -0.030594096 0.012014579
0.068264529 -0.032716528 0.012795326
0.069545783 -0.034731712 0.013594749
0.070916601 -0.036880486 0.013891559
-0.0013401572 0.080274314 0.014957184
0.00021480436 0.078332208 0.014359835
0.0018647327 0.076119073 0.013898922
0.068646364 -0.027501063 0.01214212
0.069169506 -0.029158356 0.012434186
0.070086986 -0.031443842 0.013160128
0.071350969 -0.033445552 0.014015142
0.072784498 -0.035687674 0.013976867
0.0023376958 0.079486065 0.014799658
0.0037457349 0.077320263 0.013984837
0.0050843204 0.076055288 0.01397628
0.070151165 -0.026540102 0.012210826
0.07096158 -0.027843919 0.012966418
0.072180532 -0.029801479 0.014044165
0.073592447 -0.032014165 0.014117505
0.0045893276 0.080735855 0.014117898
0.0060028848 0.078761674 0.014087897
0.007205924 0.076880164 0.014055767
0.072238475 -0.024314074 0.01283594
0.073055722 -0.026210211 0.013850204
0.074400358 -0.028340701 0.014258143
0.07568074 -0.030549033 0.014217179
0.0065452936 0.081227854 0.014182307
0.0080553759 0.079860389 0.014174645
0.0087107215 0.077841125 0.014124444
0.073151991 -0.020737501 0.012475583
0.074184008 -0.022998502 0.013594344
0.075447217 -0.025040874 0.014392428
0.076488696 -0.026875537 0.014357847
0.07334438 -0.014961838 0.012670089
0.073838085 -0.016917771 0.012618028
0.074904822 -0.019103838 0.013017336
0.076228894 -0.021228464 0.013536185
0.077257678 -0.023388049 0.013490625
0.015421111 0.07894662 0.014326393
0.016624095 0.077065088 0.014294263
0.017759277 0.074875288 0.014250317
0.019030064 0.073302016 0.014229974
0.073886789 -0.012495651 0.012764529
0.074232377 -0.013864812 0.012728045
0.07559631 -0.016040558 0.013065554
0.07690452 -0.018156489 0.01365382
0.078103319 -0.020031476 0.013621781
0.016790306 0.079291038 0.014371498
0.018128892 0.078026041 0.014363
0.019572478 0.075768203 0.014324444
0.020986084 0.073794045 0.014294443
0.074700356 -0.0087964088 0.012906145
0.075064562 -0.010816108 0.012848813
0.07621146 -0.012902787 0.013475754
0.077580139 -0.015084511 0.013771426
0.07877899 -0.016959473 0.013739417
0.078748472 -0.018563265 0.013685955
0.020114891 0.078234389 0.014418826
0.021077277 0.076729164 0.014393121
0.022588661 0.074779592 0.014366352
0.075968929 -0.0072292471 0.012988986
0.076975815 -0.009169437 0.01383969
0.078341216 -0.011353693 0.0141352
0.079753496 -0.01357926 0.014208162
0.080038764 -0.015626885 0.013814272
0.076086938 -0.0010215793 0.013195863
0.076664627 -0.0033959888 0.013257207
0.077834845 -0.0055214558 0.013758334
0.079126343 -0.0076490566 0.01438755
0.080412172 -0.0097663803 0.015016878
0.029095644 0.074960276 0.014532882
0.030058032 0.073455051 0.014507178
0.031328876 0.071881808 0.014486834
0.07542637 0.0033261448 0.013322405
0.076334558 0.0018595509 0.013546835
0.077482052 1.9898809e-05 0.013764949
0.078634731 -0.0020817874 0.014081773
0.080085419 -0.0041574277 0.014292385
0.081395708 -0.006276805 0.014655435
0.033142019 0.072774708 0.014560962
0.034619533 0.070671014 0.014528299
0.036473241 0.068807557 0.014512784
0.07569094 0.0074697318 0.013465116
0.076577038 0.0050236024 0.013531728
0.077790156 0.0030296042 0.013996555
0.079489268 0.00092154864 0.014344513
0.080814734 -0.0010648047 0.014712255
0.082008921 -0.0031172745 0.01477436
0.036696605 0.071713522 0.01461382
0.03828644 0.069700487 0.014586911
0.03976395 0.067596786 0.014554249
0.041354429 0.066006869 0.01454122
0.042407252 0.064912699 0.014531242
0.075198777 0.013073211 0.013637085
0.075974189 0.010962791 0.01358692
0.077166699 0.0087962467 0.013989954
0.078486584 0.0066185095 0.01450697
0.079899631 0.0043848022 0.014579627
0.081158236 0.002254775 0.015319122
0.082284875 1.4974908e-08 0.015384021
0.039791241 0.07066144 0.014655588
0.041611027 0.068643831 0.014634239
0.043087881 0.066831201 0.014611101
0.044393249 0.065121025 0.014587127
0.046213031 0.06310343 0.014565747
0.048032813 0.061085828 0.014544339
0.048995204 0.059580602 0.014518635
0.075461149 0.018186977 0.013811601
0.07562919 0.01659843 0.013763551
0.07663358 0.014696071 0.013725871
0.077955 0.01250371 0.01424244
0.079297349 0.010304864 0.014648097
0.080361053 0.0078155193 0.014592566
0.081490219 0.0057528066 0.01515317
0.046138644 0.065705679 0.014649408
0.047947779 0.064059816 0.014639985
0.049537614 0.062046777 0.014613075
0.050981198 0.059788939 0.01457452
0.052184183 0.057907406 0.01454239
0.053763423 0.05626614 0.014527408
0.055185974 0.054206852 0.01449484
0.056786191 0.052367002 0.014473869
0.076213554 0.018667452 0.013845956
0.07768774 0.018019008 0.013861031
0.078206182 0.015965298 0.013806335
0.079100765 0.014151801 0.013768844
0.052486002 0.060749896 0.014643198
0.053688984 0.058868356 0.014611067
0.055289201 0.05702851 0.014590098
0.056711804 0.054969251 0.014557559
0.058155391 0.052711409 0.014519003
0.059493981 0.051446423 0.014510446
0.065027766 0.042791389 0.014362619
0.069599167 0.035641585 0.014240497
0.070561551 0.034136359 0.014214793
0.071523987 0.032631163 0.01418906
0.07678657 0.022743041 0.013994028
0.077989556 0.020861501 0.013961898
0.063374199 0.047034942 0.014461232
0.064577185 0.045153402 0.014429104
0.066020764 0.042895563 0.014390547
0.067464396 0.04063775 0.014351992
0.068667382 0.03875621 0.014319832
0.07024657 0.037114915 0.014304909
0.071690157 0.034857072 0.014266353
0.072962299 0.032701731 0.014226902
0.073960572 0.030477485 0.014178432
-0.052973215 -0.026834743 0.0081615867
-0.05152455 -0.029100416 0.0081228763
-0.050075933 -0.031366121 0.0080841947
-0.048868753 -0.03325421 0.0080519449
-0.047661573 -0.035142303 0.0080196951
-0.04621296 -0.037408005 0.0079809837
-0.04476434 -0.039673716 0.0079423012
-0.043798547 -0.041184161 0.007916484
-0.052557383 -0.023857774 0.0076691532
-0.051514369 -0.025925156 0.0080050621
-0.050014526 -0.028136117 0.0081918249
-0.048565906 -0.030401833 0.0081531433
-0.047358725 -0.032289915 0.0081208935
-0.046151545 -0.034178011 0.0080886437
-0.044702876 -0.036443692 0.0080499332
-0.04325426 -0.038709395 0.0080112508
-0.041805644 -0.040975101 0.0079725394
-0.040598463 -0.042863194 0.0079402896
-0.039244507 -0.044505604 0.0079197278
-0.037565108 -0.046775881 0.0078865811
-0.03573899 -0.048800521 0.0078651216
-0.034773245 -0.050310988 0.0078393342
-0.061480734 -0.0035505227 0.0087167481
-0.060720395 -0.0054048793 0.0086745741
-0.059536636 -0.007778951 0.0086257784
-0.058614153 -0.0096969074 0.0085855247
-0.057029471 -0.011343923 0.0085704979
-0.055834074 -0.013910905 0.0083905254
-0.054589745 -0.016187616 0.0081379535
-0.052920006 -0.018363424 0.0074404352
-0.052087445 -0.020499974 0.0073907683
-0.050876074 -0.022394616 0.0073583983
-0.049422421 -0.024668191 0.007319591
-0.047944296 -0.026913274 0.0073934933
-0.046668794 -0.028955765 0.0076755984
-0.045337539 -0.030698244 0.0074724453
-0.044022825 -0.032913022 0.0075155143
-0.042570855 -0.03518397 0.0074767191
-0.041097317 -0.037422542 0.0075507388
-0.039742585 -0.039567947 0.0078194877
-0.038355641 -0.041228529 0.0079063643
-0.037126195 -0.043304808 0.008011464
-0.035677575 -0.045570515 0.0079727825
-0.034228958 -0.047836225 0.0079340711
-0.033021729 -0.049724281 0.0079018213
-0.031780567 -0.051457725 0.0078755002
-0.030093791 -0.052640695 0.0078782588
-0.061660759 5.7097532e-05 0.0088308407
-0.060831085 -0.0020720658 0.0087813679
-0.05938242 -0.0043377411 0.0087426575
-0.057652801 -0.0065623438 0.0084620276
-0.056431275 -0.0083125848 0.0083512943
-0.055276953 -0.010246404 0.0080937874
-0.053906087 -0.012584333 0.0077171833
-0.052479539 -0.014880278 0.0075657619
-0.05102589 -0.017153852 0.0075269244
-0.050014522 -0.019069493 0.0074889353
-0.048981953 -0.021185048 0.0074449172
-0.047528304 -0.023458619 0.0074060801
-0.046074655 -0.025732188 0.0073672426
-0.044863276 -0.027626839 0.0073348731
-0.043651901 -0.029521486 0.0073025036
-0.0421982 -0.031795025 0.007263667
-0.040744551 -0.034068599 0.0072248592
-0.039059348 -0.036346767 0.007191591
-0.037700716 -0.037994906 0.0071709501
-0.036489341 -0.039889548 0.0071385805
-0.035035692 -0.042163122 0.007099743
-0.033524655 -0.044331919 0.0073993695
-0.032159306 -0.04643501 0.0077809794
-0.031084621 -0.048212007 0.0077991579
-0.029927013 -0.050407011 0.0079557728
-0.028499437 -0.052473437 0.007923115
-0.061810076 0.0052797166 0.0089987628
-0.06107321 0.0029393462 0.0089400429
-0.059937116 0.0010832367 0.0087641375
-0.058671676 -0.00069237244 0.0084629282
-0.057284035 -0.0030037963 0.0081710406
-0.055711463 -0.005095663 0.0079075778
-0.054325331 -0.0069870409 0.0077795628
-0.05311396 -0.0088816844 0.0077472231
-0.051945988 -0.011185226 0.007700345
-0.050758146 -0.013567547 0.007651384
-0.049752913 -0.01580729 0.0076025836
-0.034974039 -0.038921889 0.0072077718
-0.033209845 -0.041263968 0.0071743643
-0.031456318 -0.043231692 0.0071529648
-0.030097688 -0.044879828 0.0071323533
-0.029089095 -0.046960145 0.0072708316
-0.027760686 -0.049179237 0.0073823519
-0.026272457 -0.051365785 0.0075974194
-0.024902562 -0.053345647 0.0078581218
-0.023180004 -0.055138964 0.0079668062
-0.06144049 0.0090255961 0.0091309743
-0.060541488 0.0066216267 0.0090741739
-0.059206732 0.0042920876 0.0085857641
-0.057985429 0.0025198357 0.0082017714
-0.056549888 0.00066431897 0.0079760961
-0.055096235 -0.0016092561 0.007937259
-0.053815261 -0.0037796351 0.0078975558
-0.052810028 -0.0060193781 0.0078487843
-0.052083205 -0.0071561681 0.0078293504
-0.028340163 -0.044291124 0.0071950764
-0.027371058 -0.045806844 0.007169175
-0.025538547 -0.047838472 0.0071476353
-0.024084896 -0.05011205 0.0071088281
-0.022821119 -0.052575801 0.0073092822
-0.021456556 -0.054629147 0.0078036552
-0.020118633 -0.05626842 0.0080052372
-0.018832702 -0.057503514 0.0079963934
-0.06138441 0.014592102 0.009315283
-0.060761053 0.012508455 0.0092621949
-0.059782226 0.010306437 0.008991573
-0.058503322 0.0079512056 0.0082785394
-0.05707857 0.0056631481 0.0081273243
-0.056246009 0.0035265943 0.0080776569
-0.055345178 0.0017004607 0.008039888
-0.054444347 -0.00012567444 0.0080021173
-0.021184212 -0.051728375 0.0071272841
-0.019525755 -0.05307069 0.0071241101
-0.018275267 -0.054848038 0.0074301669
-0.016749088 -0.056881994 0.0080682486
-0.014854905 -0.05859727 0.008058616
-0.060497686 0.017640075 0.0094373217
-0.06011577 0.015934044 0.0093906941
-0.059022225 0.013997043 0.0089092059
-0.057712991 0.011661736 0.008308785
-0.056673344 0.0094795413 0.0082627088
-0.056047868 0.0073886369 0.0082094511
-0.017389417 -0.052240081 0.0072041308
-0.016041452 -0.053513855 0.0071955575
-0.014552983 -0.055669162 0.0074950671
-0.013035376 -0.057701241 0.0081329606
-0.011496052 -0.059554476 0.0081100482
-0.0098660095 -0.060995266 0.0081029357
-0.060023654 0.020779051 0.0095521556
-0.059240952 0.019009588 0.0093703447
-0.058062095 0.017298013 0.0086521488
-0.05689371 0.015386788 0.0084514096
-0.05626817 0.013295908 0.0083981231
-0.013859566 -0.052476276 0.0072835004
-0.012314867 -0.054335956 0.007260507
-0.01084062 -0.056530036 0.0074471934
-0.0096185245 -0.058601536 0.0080447402
-0.0082716569 -0.060828 0.008147792
-0.059207227 0.024491196 0.0096942903
-0.058841769 0.022464432 0.0096367253
-0.057670977 0.020332132 0.0089700129
-0.056210965 0.018491006 0.0085702389
-0.055862952 0.017112309 0.0085335374
-0.010399648 -0.053326361 0.0073409369
-0.0089671556 -0.055399984 0.0073081581
-0.0078574382 -0.057760242 0.0076869321
-0.0063917306 -0.059658654 0.0081325024
-0.005053123 -0.061538018 0.0082038837
-0.057767443 0.026119696 0.0097833369
-0.05684191 0.023910448 0.0092887767
-0.055528268 0.021595184 0.0086890962
-0.054937985 0.019837564 0.0086459275
-0.0087997606 -0.053158514 0.0073859533
-0.0074306922 -0.054632269 0.0073713204
-0.0058616097 -0.056085028 0.0073622782
-0.0045242631 -0.058199707 0.0075987279
-0.002895446 -0.060084656 0.0081619155
-0.0015928657 -0.061739124 0.008282694
-0.056538384 0.029740809 0.0099326754
-0.055914983 0.027657196 0.0098795872
-0.054681558 0.025328042 0.0089438511
-0.053697571 0.023404624 0.0087937322
-0.0041040857 -0.055496324 0.0074250009
-0.0024683536 -0.05694209 0.0074178819
-0.00091728591 -0.058761034 0.0075075887
0.00057582726 -0.060745835 0.0082576526
0.0021207905 -0.062558398 0.0083474061
-0.055304002 0.031025423 0.010005335
-0.053808834 0.029064525 0.0093106013
-0.052591335 0.026805971 0.0089328084
-0.052224588 0.024772184 0.0088750403
0.0013794394 -0.057635948 0.0074900449
0.0028078654 -0.059582818 0.0075725019
0.0040050708 -0.061606951 0.0082822181
0.0048833555 -0.063275956 0.0083920201
-0.054148443 0.034125164 0.0099355709
-0.05337707 0.032419089 0.0096437596
-0.051772047 0.030531019 0.0090754321
-0.051405352 0.0284972 0.0090176649
0.0037278875 -0.056898601 0.0075722276
0.0050758547 -0.058172382 0.0075636245
0.0063129407 -0.060521893 0.0079718689
0.0072878436 -0.062671117 0.0084712263
-0.05329711 0.037199553 0.010257747
-0.052342288 0.035431158 0.0098478943
-0.050934032 0.033600979 0.0091969911
-0.050586075 0.032222252 0.0091602886
0.0071667028 -0.057548705 0.0076357238
0.008423619 -0.059236377 0.0076113064
0.0095142424 -0.061461359 0.0083435476
0.010794099 -0.062958091 0.0085483287
-0.051683541 0.040995322 0.01042231
-0.051498096 0.038999945 0.010250124
-0.050251342 0.036705162 0.0093158493
-0.049661055 0.034947537 0.0092726499
0.010347911 -0.058312479 0.0076891351
0.011619148 -0.060173396 0.0079095615
0.013238476 -0.061880637 0.0085328715
-0.050105449 0.042268969 0.010503116
-0.049306579 0.040440053 0.0100179
-0.048225082 0.038304057 0.0094184112
0.013075166 -0.057333216 0.0077886456
0.013801992 -0.058470003 0.0077692121
0.015255432 -0.060526952 0.0083213225
0.016772842 -0.062330883 0.0087164948
-0.04859674 0.043817397 0.01059122
-0.047134597 0.041883137 0.0096741077
-0.046568837 0.040124062 0.0095190909
0.015971849 -0.057191074 0.0078647984
0.017391568 -0.059132326 0.0081089651
0.018592369 -0.061434846 0.0087908395
0.019694185 -0.062326625 0.0087887356
-0.047469504 0.046877157 0.010719595
-0.046928674 0.045124605 0.010452918
-0.045265064 0.043091234 0.0096487487
0.017832501 -0.056429792 0.0079357224
0.01915474 -0.057971478 0.0080606574
0.02039732 -0.059976939 0.0086330771
0.02151371 -0.061430596 0.0088630803
-0.045823403 0.048460137 0.010812229
-0.044731122 0.046572667 0.01022113
-0.043613218 0.044679727 0.0097417356
0.021104757 -0.056779675 0.0080049783
0.022516938 -0.058605582 0.0084246416
0.023922049 -0.060386449 0.0089568365
-0.043645024 0.050250091 0.010924812
-0.04248428 0.048022524 0.010213029
-0.041582566 0.046510134 0.0098519912
0.02348667 -0.055594038 0.0081027262
0.024797596 -0.057275973 0.00819101
0.026217222 -0.059224669 0.0090516685
0.027560465 -0.06049405 0.0090431031
-0.041534711 0.051730677 0.011025538
-0.040278733 0.049477331 0.0099816797
-0.040067255 0.047477797 0.0099211819
0.026104948 -0.054348942 0.0082082758
0.027074046 -0.055864651 0.0081823738
0.028496867 -0.057897348 0.0088179205
0.029792162 -0.059494343 0.0091310348
-0.040612914 0.054446507 0.011137527
-0.039496996 0.052941177 0.010686706
-0.038252521 0.051076196 0.010084211
0.027999014 -0.0531394 0.008294764
0.029346976 -0.05441317 0.0082861613
0.030631922 -0.056562904 0.0084974356
0.031577017 -0.058460902 0.0092090433
-0.038725339 0.055651903 0.011223729
-0.037771001 0.054302789 0.010952744
-0.036354009 0.052517276 0.010178423
0.0312622 -0.053403579 0.0083666211
0.032593384 -0.05563828 0.0084689911
0.033705998 -0.057633173 0.0092887832
0.035426803 -0.058661457 0.0092974398
-0.036460299 0.057098351 0.011327152
-0.035591871 0.055605862 0.010743557
-0.034702163 0.054105774 0.01027138
0.033309169 -0.052683409 0.0084408028
0.034588806 -0.05426763 0.0084203314
0.035979077 -0.056225635 0.0092799431
0.037528526 -0.057957467 0.0093724607
0.039140459 -0.05948073 0.0093621816
-0.034950264 0.058062639 0.011396131
-0.033468578 0.057086907 0.010900194
-0.033186864 0.055073429 0.010340571
0.036827605 -0.052971367 0.0085181836
0.038046613 -0.054841593 0.0087727336
0.039071895 -0.05671351 0.0089509701
-0.033114012 0.062343787 0.010781442
-0.031957962 0.060660996 0.010554522
-0.031488817 0.059092838 0.010514557
0.038619325 -0.05222743 0.0085868416
0.039921734 -0.053708158 0.0085703162
0.040315244 -0.054879922 0.0085415365
-0.031790622 0.062902428 0.010632318
-0.031063801 0.061765645 0.010612884
-0.021699 0.068813235 0.011075593
-0.02097217 0.067676447 0.011056188
-0.020003075 0.066160738 0.011030287
-0.02095243 0.070232645 0.011891295
-0.01985641 0.068645395 0.011515865
-0.018624309 0.066507563 0.011075713
-0.017276397 0.065233752 0.011067109
-0.01999916 0.072928287 0.012253605
-0.019652359 0.071554363 0.012216997
-0.018101698 0.069752663 0.012196071
-0.016680544 0.067682505 0.011607105
-0.01551887 0.065822452 0.011129832
-0.015663872 0.070804238 0.012290798
-0.014365572 0.06909655 0.012155512
-0.013003661 0.066895001 0.011227151
-0.013432172 0.071803942 0.012378731
-0.012088927 0.07053455 0.012370165
-0.010720802 0.068337373 0.011442091
-0.010180295 0.071540669 0.012450344
-0.0087943124 0.069514126 0.011917535
-0.0076252357 0.067661405 0.011385087
0.057736188 -0.034256935 0.010316402
0.058985956 -0.035639785 0.010635393
-0.0081404224 0.072258323 0.012524249
-0.0068739112 0.070688657 0.012392711
-0.0055190679 0.068777688 0.011473738
0.058442947 -0.030375196 0.010127746
0.059178919 -0.032625325 0.010405583
0.060522739 -0.034483943 0.010568322
0.061597798 -0.035567265 0.010702238
-0.0046341261 0.071971387 0.012601352
-0.003208874 0.069933802 0.011679935
0.060018133 -0.028956689 0.0098796338
0.061229516 -0.03085134 0.0098472647
0.062573567 -0.032941706 0.010478965
0.063485324 -0.034361895 0.010788409
-0.0021963411 0.073022932 0.012696079
-0.00092360924 0.071364708 0.012005752
0.00040492718 0.070121199 0.011664108
0.062291071 -0.027505215 0.0099834213
0.063716441 -0.029583262 0.010132273
0.064838648 -0.031727847 0.010765371
0.064995416 -0.033397581 0.010857388
0.0004128658 0.074263722 0.012801234
0.0013629477 0.072783455 0.01244243
0.0026443917 0.07112439 0.011752331
0.064215988 -0.024675041 0.010123939
0.064711235 -0.026090333 0.010840302
0.065946043 -0.028396409 0.010844978
0.066672213 -0.030199591 0.011003852
0.0032661892 0.07395865 0.012861648
0.0046776622 0.071782447 0.011824151
0.006025631 0.070508674 0.011815547
0.065419421 -0.023052715 0.010206933
0.066581488 -0.02505815 0.01083698
0.067799449 -0.027139843 0.011132198
0.0051837973 0.074879333 0.012939227
0.006581767 0.072959833 0.012243423
0.0078862254 0.071269929 0.011886471
0.0092676599 0.070444435 0.011893462
0.065171808 -0.020329151 0.010290329
0.067201406 -0.021834705 0.010290953
0.068532549 -0.023932032 0.010588464
0.069617622 -0.025659706 0.011225726
0.0079016313 0.075855218 0.013038378
0.0086182039 0.07450515 0.012868731
0.0099740457 0.072869316 0.012240743
0.011358503 0.071068108 0.011965531
0.068823457 -0.018530887 0.010439541
0.069392525 -0.020262932 0.010507867
0.070696361 -0.022351362 0.011249867
0.071298882 -0.024408787 0.011308311
0.0087181078 0.079567395 0.013180484
0.0099685565 0.078086793 0.0131627
0.010891035 0.076168835 0.013122447
0.012096819 0.074291199 0.012979319
0.013541011 0.072095141 0.012164347
0.015085083 0.070246018 0.01203051
0.069607489 -0.014472576 0.010592254
0.070364065 -0.016570568 0.010667074
0.071513109 -0.018637767 0.011392047
0.072115295 -0.020696629 0.011450446
0.011767467 0.078678444 0.013226551
0.012778568 0.077374198 0.013208648
0.013985748 0.075486109 0.013176398
0.015434472 0.073235646 0.012971395
0.016887343 0.071026608 0.012267414
0.018145077 0.069354005 0.012076708
0.070083201 -0.011322692 0.010707492
0.070673488 -0.013080308 0.010664323
0.071963049 -0.015176959 0.011461267
0.072760537 -0.017271075 0.011578946
0.013186781 0.079230271 0.013279701
0.014288596 0.078338496 0.013277597
0.015495828 0.076450437 0.013245348
0.016965486 0.073985443 0.013200613
0.018737897 0.072016284 0.013054533
0.020233933 0.069967933 0.01225964
0.02187166 0.068531916 0.012141658
0.070902437 -0.0075976704 0.010850117
0.07142172 -0.0097205685 0.010904378
0.072408855 -0.011900235 0.011371419
0.072993144 -0.01375449 0.011700242
0.021140974 0.072610222 0.013258484
0.022486864 0.071350172 0.013139087
0.023715122 0.069520384 0.012386435
0.02502265 0.068053775 0.01220373
0.072206274 -0.0046304795 0.010979804
0.072555952 -0.0063119647 0.011099968
0.073335968 -0.0084886784 0.011581464
0.073879801 -0.010706536 0.01182228
0.023874285 0.074710228 0.013394959
0.024749316 0.072787292 0.013353342
0.025956498 0.070899211 0.013321093
0.027190734 0.069063671 0.012624013
0.028749228 0.067231677 0.012268679
0.072611496 -0.00081408425 0.011115219
0.073366709 -0.0029180027 0.0111898
0.074507847 -0.0050212862 0.011913392
0.075073741 -0.0067533283 0.011981637
0.027044481 0.073949091 0.013448174
0.02822159 0.072345681 0.013424546
0.029428767 0.070457593 0.013392298
0.030906565 0.068234026 0.012799639
0.032418903 0.066150896 0.012323748
0.034285501 0.064274438 0.012308142
0.07239113 0.0050931657 0.01130389
0.07288833 0.0031236298 0.011251435
0.07394246 0.00090647506 0.011760604
0.075017229 -0.0013195056 0.012158808
0.075512655 -0.0032822478 0.01210655
0.031180233 0.071044266 0.013454784
0.032764923 0.069397248 0.013439787
0.034224492 0.067143247 0.013234941
0.035720862 0.064920135 0.012531566
0.036943909 0.063037038 0.012333096
0.038534097 0.061384298 0.012318024
0.072384521 0.0080239773 0.011400022
0.073425174 0.0060745408 0.011761955
0.074353628 0.0042194645 0.01212426
0.075121954 0.002318017 0.012280906
0.034380361 0.069365263 0.01347859
0.03574466 0.06789659 0.013464001
0.037549738 0.066071227 0.013448565
0.038783096 0.064203754 0.013084052
0.040010806 0.062325824 0.012830222
0.041537184 0.0602336 0.012354342
0.043403834 0.058357179 0.012338737
0.07084927 0.015848707 0.011619252
0.071612231 0.013987887 0.011576949
0.072469734 0.011601947 0.01174208
0.073854424 0.0093721459 0.012036629
0.074664459 0.0070247599 0.012424278
0.075424798 0.0051704049 0.012382134
0.039542638 0.06628029 0.013504621
0.040599145 0.065182306 0.013494632
0.04219516 0.063586846 0.013481591
0.043688625 0.061481353 0.013338026
0.045183111 0.059234943 0.012856295
0.046441007 0.057361655 0.012380988
0.048031244 0.055708949 0.012365917
0.049863707 0.053677287 0.012344377
0.051317357 0.051403709 0.01230554
0.052528732 0.049509063 0.0122732
0.070214905 0.021847324 0.011800714
0.071047463 0.019710777 0.011751046
0.071857832 0.01758522 0.011812412
0.073199078 0.01537146 0.012328773
0.074169196 0.01323187 0.012616038
0.074792609 0.011148258 0.012562951
0.045187831 0.062440109 0.013517757
0.047014005 0.060415503 0.013496298
0.048495967 0.058596525 0.013473107
0.049819052 0.056884162 0.013338268
0.051295128 0.054624222 0.013078013
0.05274542 0.052355893 0.013039289
0.054195713 0.050087564 0.013000594
0.055805799 0.048440248 0.012819363
0.057087872 0.046550419 0.012288483
0.058541525 0.044276848 0.012249645
0.059995171 0.042003281 0.012210808
0.061206594 0.040108658 0.012178469
0.062486239 0.038524438 0.012157997
0.064250432 0.036182355 0.012124559
0.065704077 0.033908781 0.012085722
0.066951595 0.031290106 0.012030482
0.067990288 0.029498659 0.011997247
0.069108538 0.027392067 0.011955621
0.070276506 0.025088534 0.011908743
0.071708038 0.022823952 0.011980861
0.07304959 0.020600125 0.012496926
0.074191123 0.018741112 0.012797598
0.074573047 0.01703508 0.012750971
0.05276452 0.055578988 0.013479289
0.05452263 0.053245019 0.013446002
0.056270089 0.051284105 0.013424682
0.057623994 0.049641654 0.013404121
0.058864325 0.047754347 0.01315029
0.060330905 0.045486845 0.013000778
0.061781198 0.043218516 0.012962084
0.063251704 0.041106757 0.013012339
0.064244322 0.039151005 0.01279389
0.065648682 0.037169654 0.012858721
0.067098975 0.034901325 0.012819968
0.068549268 0.032632995 0.012781275
0.07001783 0.030524304 0.012831574
0.071069978 0.028544748 0.012327837
0.072460525 0.026569549 0.012456115
0.073822387 0.02433311 0.012861062
0.075248979 0.02207564 0.012933301
0.076456167 0.020187551 0.012901051
0.077731401 0.018608822 0.012880629
0.059466172 0.050640792 0.013482437
0.06071876 0.048958965 0.013458073
0.06216738 0.046693254 0.013419361
0.063615993 0.044427548 0.013380679
0.0649966 0.041852511 0.013330141
0.066271789 0.040273752 0.013309718
0.067479022 0.0383857 0.013277469
0.06875553 0.036222804 0.013237922
0.069998749 0.033613205 0.013182853
0.071845964 0.031389322 0.013155341
0.073032051 0.029700482 0.013129144
0.073929787 0.02788068 0.0130915
0.075310394 0.025305644 0.013040932
0.076276131 0.023795169 0.013015144
-0.049036819 -0.01916801 0.0065089781
-0.048064366 -0.020688966 0.0064829923
-0.04660568 -0.022970408 0.006444029
-0.045147002 -0.025251843 0.0064050658
-0.04393138 -0.027153013 0.006372577
-0.04271581 -0.029054211 0.0063401177
-0.041257132 -0.031335644 0.0063011544
-0.039798446 -0.033617087 0.0062621608
-0.038582876 -0.035518281 0.0062297015
-0.050888982 -0.011247447 0.0067235138
-0.049741894 -0.013460125 0.0066791163
-0.048837963 -0.015292587 0.0066412222
-0.048002519 -0.01743653 0.0065914188
-0.039736599 -0.030364646 0.0063706175
-0.038277917 -0.032646086 0.006331624
-0.037062347 -0.034547284 0.0062991646
-0.035846774 -0.036448486 0.0062666754
-0.034007974 -0.038487177 0.006245085
-0.032570511 -0.040567972 0.0062121563
-0.030953553 -0.042427041 0.0061909766
-0.053956669 -0.0014256617 0.0069705695
-0.052809626 -0.0036383679 0.0069261715
-0.051905699 -0.0054708296 0.0068882471
-0.050914429 -0.0076491381 0.0068411767
-0.049611565 -0.0098962095 0.0067994809
-0.048152883 -0.012177649 0.0067605171
-0.046937265 -0.014078815 0.0067280587
-0.030648593 -0.039554838 0.0062928991
-0.029433025 -0.041456033 0.0062604398
-0.028183216 -0.043201499 0.0062339194
-0.026378654 -0.045395929 0.0062063602
-0.024539847 -0.047434632 0.0061847102
-0.023081161 -0.04971607 0.0061457469
-0.055353556 0.0041081845 0.0071179289
-0.054344814 0.0018607075 0.0070689637
-0.053059418 -0.00031719508 0.0070291627
-0.051600739 -0.0025986328 0.0069901999
-0.050385166 -0.0044998298 0.0069576805
-0.049169596 -0.0064010303 0.0069252504
-0.047710918 -0.0086824661 0.0068862876
-0.04625218 -0.010963875 0.0068473248
-0.027532371 -0.040242296 0.0063471864
-0.026316807 -0.04214349 0.0063147568
-0.024858125 -0.044424932 0.0062757931
-0.023399439 -0.046706371 0.0062368005
-0.021940747 -0.048987824 0.0061978367
-0.020725187 -0.050889004 0.0061653475
-0.019615725 -0.051786985 0.0061632092
-0.055676296 0.0090784924 0.0072732773
-0.054892771 0.006946018 0.0072225844
-0.053833023 0.0050791828 0.0071873926
-0.052617453 0.0031779858 0.0071549327
-0.051158767 0.000896546 0.0071159396
-0.049700089 -0.0013848902 0.0070769759
-0.048484519 -0.0032860853 0.0070445165
-0.046986427 -0.0051115155 0.0068395091
-0.045498781 -0.0072865407 0.0066531529
-0.024416151 -0.040929753 0.0064015333
-0.02295747 -0.043211188 0.00636257
-0.021498786 -0.04549263 0.0063236067
-0.020040104 -0.047774069 0.0062846434
-0.018824538 -0.049675263 0.0062521538
-0.01763924 -0.051289804 0.0062283627
-0.055269696 0.012908074 0.0074092043
-0.054226451 0.010718336 0.0073629953
-0.052767769 0.008436895 0.0073240316
-0.051552251 0.0065356703 0.0072915419
-0.050336685 0.0046344697 0.0072590825
-0.048902106 0.0023362662 0.007107723
-0.047538567 -1.5922627e-05 0.0066192998
-0.046344448 -0.0019387578 0.006474359
-0.045017775 -0.0036294314 0.0062609315
-0.022177652 -0.039570846 0.0061678267
-0.020758737 -0.041955642 0.0057908539
-0.019256929 -0.044138961 0.0060897865
-0.017759332 -0.046317589 0.0063887932
-0.016543714 -0.048218753 0.0063563045
-0.015328143 -0.050119951 0.0063238447
-0.013686771 -0.051570736 0.0063166581
-0.055075262 0.018744141 0.0076057436
-0.054707278 0.0167033 0.0075477734
-0.053404361 0.014456256 0.0075061084
-0.051945679 0.01217482 0.0074671451
-0.050487 0.0098933857 0.0074281814
-0.049271431 0.0079921838 0.0073956922
-0.048127867 0.0060449974 0.0070263227
-0.046786722 0.0036804162 0.0064256722
-0.045347266 0.0013750782 0.0062742517
-0.044127502 -0.00053267507 0.0062416727
-0.018512422 -0.04059545 0.0055573583
-0.01570119 -0.045021135 0.0058566136
-0.014273115 -0.046574783 0.0063234144
-0.01304738 -0.04866346 0.0064279945
-0.011588693 -0.050944898 0.0063890312
-0.0099473214 -0.052395687 0.0063818442
-0.053766944 0.021721583 0.0077358792
-0.053597175 0.020116428 0.0076873056
-0.052582275 0.01819418 0.0076492215
-0.051123593 0.015912745 0.0076102582
-0.049689338 0.013618853 0.0074590836
-0.04830265 0.011297173 0.0070833797
-0.047169358 0.0093439762 0.0066579487
-0.045986034 0.0074152043 0.0064569437
-0.044522319 0.0051259021 0.0064178542
-0.013540283 -0.043330986 0.0055902028
-0.012309845 -0.045203455 0.0056702145
-0.010766607 -0.047206976 0.0065321443
-0.0093078716 -0.049488388 0.0064931815
-0.0078491922 -0.051769823 0.0064542182
-0.0065302048 -0.053497884 0.0064299372
-0.0052353572 -0.054741569 0.0064210459
-0.052661907 0.02278425 0.0077980664
-0.051897194 0.021309124 0.0077684578
-0.050681621 0.019407922 0.0077360277
-0.048959043 0.017176364 0.0073298756
-0.047600616 0.014981536 0.0066657346
-0.046136901 0.012692234 0.0066266451
-0.04491714 0.010784484 0.006594066
-0.010031865 -0.043777201 0.0056621074
-0.0085404757 -0.045960195 0.0059607672
-0.0074072224 -0.048274644 0.0065799584
-0.0059485431 -0.050556079 0.0065409951
-0.0047329688 -0.05245728 0.0065085054
-0.0035174058 -0.054358471 0.0064760461
-0.0022561457 -0.056051999 0.0064514861
-0.051424328 0.026430508 0.0079484256
-0.051056288 0.024389695 0.0078904554
-0.049996544 0.022522865 0.0078552645
-0.048853759 0.020592412 0.0074864235
-0.047358759 0.018506845 0.0069305245
-0.045693383 0.016199484 0.0067528291
-0.044229664 0.013910179 0.0067137396
-0.0055304044 -0.047166806 0.0063290442
-0.0040478925 -0.049342331 0.0066278018
-0.0028323201 -0.051243536 0.0065953122
-0.0016167552 -0.053144727 0.0065628528
-0.00015801692 -0.055426143 0.00652389
0.0011945576 -0.056704361 0.0065152179
-0.050602186 0.030168461 0.0080915391
-0.050234206 0.02812762 0.0080335988
-0.048955481 0.025872787 0.0078798244
-0.047859948 0.023929533 0.0072869761
-0.046713628 0.021996003 0.0069181314
-0.045249913 0.019706698 0.0068790121
-0.043786198 0.017417395 0.0068399231
-0.0005549675 -0.049601067 0.0065625422
0.00066401873 -0.051688246 0.0066670021
0.0021227475 -0.053969651 0.0066280393
0.0035511069 -0.055964455 0.006597714
-0.049780104 0.033906385 0.0082346518
-0.049412064 0.031865571 0.0081767123
-0.048109204 0.029618504 0.008135017
-0.046840254 0.027280033 0.0071998462
-0.04564473 0.025365276 0.0070552239
-0.04442497 0.023457525 0.0070226444
-0.042961255 0.021168223 0.0069835251
0.0044035194 -0.052513171 0.0067321891
0.0058622034 -0.054794602 0.0066931965
0.0071812393 -0.056522634 0.0066689458
0.0085674049 -0.057351004 0.0066759423
-0.04867506 0.034969047 0.0082968399
-0.047667239 0.033113681 0.0082607865
-0.045967292 0.030892903 0.0077293459
-0.044575833 0.02873455 0.0071923165
-0.043356068 0.026826801 0.0071597369
-0.042136304 0.024919046 0.0071271574
0.0065094386 -0.051230058 0.0062007974
0.0077628521 -0.053580862 0.0067800027
0.0089784227 -0.05548206 0.0067474833
0.0099508781 -0.057003018 0.0067215282
-0.047331374 0.037612081 0.0084168483
-0.046982154 0.036228623 0.0083800526
-0.045789514 0.034322899 0.0082356697
-0.04433547 0.032253105 0.0074568288
-0.042668648 0.029952468 0.00727941
-0.040884517 0.02803242 0.0067598852
0.0096614603 -0.05240427 0.0067543173
0.010879122 -0.054268286 0.0068343207
0.012094696 -0.056169484 0.0068018315
-0.045669381 0.039438408 0.0085179182
-0.044735339 0.037680451 0.0083164135
-0.043665815 0.035752784 0.0075566005
-0.042246688 0.033454843 0.0072937063
-0.040867597 0.031142537 0.0068069259
0.011937398 -0.051095031 0.0064087114
0.013159891 -0.052811794 0.0069384705
0.014375467 -0.054713003 0.0069059809
0.01565956 -0.056302693 0.0068854308
-0.043848351 0.043049268 0.0086814845
-0.043636136 0.041042827 0.0086208126
-0.042586137 0.03912225 0.007749558
-0.041400187 0.037210543 0.0075492263
-0.040105034 0.034887578 0.0066151656
-0.038657885 0.032586321 0.0064640692
0.014065639 -0.049665362 0.0063135321
0.015445145 -0.051170081 0.0069058342
0.016656242 -0.053256527 0.0070101307
0.01814921 -0.055382188 0.0069771372
-0.042707939 0.043777525 0.0087335445
-0.041586261 0.042245805 0.0082819927
-0.040331293 0.040579822 0.0076863188
-0.039173435 0.038662892 0.0073182606
-0.037830133 0.036350023 0.0066081905
-0.036361385 0.034052853 0.0065689455
0.017326744 -0.049688652 0.0065183588
0.018556884 -0.052042779 0.0070969369
0.020015568 -0.054324213 0.0070579741
0.020988075 -0.055845141 0.0070319595
-0.041050397 0.045371503 0.0088268844
-0.03989473 0.043621622 0.0082974881
-0.038424104 0.041797731 0.0077733831
-0.036991239 0.03996142 0.006997765
-0.035533637 0.037816558 0.0067130364
-0.034064882 0.03551938 0.0066738212
0.019297283 -0.048795968 0.0063640391
0.020459577 -0.050865613 0.0070713423
0.021916265 -0.053110432 0.007144751
0.023200311 -0.054700159 0.0071241702
-0.038856927 0.047173865 0.0089402413
-0.037695404 0.044923775 0.0081164995
-0.036282208 0.04278715 0.0076085916
-0.035184622 0.041039165 0.0070277224
-0.03361987 0.039038673 0.0068004485
-0.032151114 0.036741503 0.0067612035
0.021299941 -0.047411747 0.0063159615
0.022752147 -0.049553983 0.0067261932
0.024197038 -0.051653951 0.0072489008
0.025412608 -0.053555153 0.0072164414
-0.037324257 0.05042845 0.0090849875
-0.03675143 0.048665691 0.0089299846
-0.035447977 0.046384953 0.0079975706
-0.034096889 0.044090603 0.007288279
-0.032930057 0.042175096 0.0069205295
-0.031706098 0.040260788 0.0068878303
-0.030394221 0.037998244 0.0068458486
0.0235886 -0.045950226 0.0064204452
0.025052318 -0.048239529 0.0063813562
0.026477862 -0.050197441 0.0073530511
0.02790622 -0.052192245 0.0073227552
-0.035355072 0.051953692 0.009183703
-0.034507919 0.050125189 0.0088109253
-0.033159316 0.047846477 0.0081020836
-0.031802949 0.045555491 0.0073930044
-0.030633509 0.043641653 0.0070254062
-0.02940955 0.041727349 0.006992707
-0.028387683 0.039791822 0.0069543133
0.025877263 -0.044488706 0.0065249582
0.027340984 -0.046778016 0.0064858692
0.028773423 -0.048848856 0.0071203979
0.030217314 -0.051022388 0.0074182376
0.031569887 -0.052300606 0.0074095954
-0.033766069 0.053236175 0.0092650447
-0.032632396 0.051343597 0.0087304395
-0.031252135 0.049064394 0.0081891771
-0.02952606 0.047021259 0.0073862206
-0.028337007 0.045108184 0.0071302527
-0.027269918 0.0432285 0.0070948461
-0.026899399 0.041173577 0.007036441
0.029248165 -0.045560095 0.0065729632
0.030693769 -0.047741137 0.0068705687
0.032117959 -0.049808644 0.0075050443
0.033333533 -0.051709846 0.0074725249
-0.032320697 0.056836627 0.0094190277
-0.031952709 0.054795783 0.0093610873
-0.030755119 0.052563135 0.0086500039
-0.0293449 0.050282337 0.0082762716
-0.027647195 0.048244607 0.0072503635
-0.02642324 0.046330303 0.0072176643
-0.025688866 0.045181718 0.0071980273
0.0311554 -0.044342156 0.0066600577
0.032612622 -0.046595648 0.0067331549
0.034018621 -0.048594911 0.0075918208
0.035477292 -0.050876342 0.0075528575
0.03721004 -0.051911782 0.0075615589
-0.030994674 0.058111805 0.0094936583
-0.029827716 0.05628667 0.0094625354
-0.028519956 0.054033164 0.0084198741
-0.02708802 0.051747907 0.0081577394
-0.025733432 0.049466725 0.0073377453
-0.024509471 0.047552422 0.0073050465
-0.024540614 0.045914982 0.0072504799
0.034907777 -0.045169935 0.0067254519
0.036339182 -0.047315575 0.0071350718
0.037758119 -0.049419828 0.0076570078
0.039077099 -0.051147889 0.0076327566
0.040548149 -0.052778833 0.0076154666
-0.030813524 0.063689493 0.0096814074
-0.029822256 0.061511185 0.0096343365
-0.028762512 0.059644349 0.0095991446
-0.027595736 0.057755895 0.0092322584
-0.026231345 0.055494659 0.0085243871
-0.024813073 0.053212848 0.0081507871
-0.023436876 0.050933283 0.0074426224
-0.022212977 0.049018953 0.0074099223
0.038483713 -0.045883413 0.0070404964
0.040026098 -0.047794372 0.0076663201
0.041053794 -0.049885597 0.0077230139
0.041639052 -0.051582411 0.0076816864
-0.029292999 0.064660497 0.0097508403
-0.028077431 0.062759295 0.0097184107
-0.026861863 0.060858097 0.0096859215
-0.025473285 0.058970824 0.0092292484
-0.023942683 0.056956179 0.0086289002
-0.022521794 0.054676037 0.0082554212
-0.021140378 0.052399814 0.0075474684
-0.019916423 0.05048551 0.007514799
-0.027149232 0.065494001 0.0098311426
-0.02617678 0.063973032 0.0098052174
-0.024961213 0.062071845 0.0097727282
-0.023744354 0.060338255 0.0094955657
-0.022035446 0.058174126 0.0087159947
-0.020612404 0.055895366 0.0083426312
-0.019226614 0.053621937 0.00763488
-0.01824745 0.052090492 0.0076087266
-0.02524858 0.066707745 0.0099179493
-0.023895958 0.065429553 0.0099093672
-0.022680385 0.063528351 0.009876878
-0.021464815 0.061627153 0.0098444186
-0.020128263 0.059392039 0.0088030882
-0.018703008 0.057114687 0.0084298411
-0.017312845 0.054844055 0.0077222623
-0.015984735 0.053104095 0.0076978756
-0.021995306 0.066643298 0.0099961441
-0.020503033 0.064811699 0.0099727605
-0.019184051 0.063083641 0.0099485684
-0.017814107 0.0608414 0.0091302069
-0.016375892 0.058564261 0.0088684829
-0.015016347 0.056310583 0.0078271385
-0.013792388 0.054396279 0.0077944389
-0.012292499 0.053736549 0.007809761
-0.017262178 0.064096734 0.010029251
-0.015637167 0.062034409 0.0095726307
-0.014087228 0.060025781 0.0089729959
-0.012719797 0.057777144 0.007931985
-0.01149584 0.05586284 0.007899316
-0.01489652 0.064750649 0.010109114
-0.013914309 0.063399948 0.009838772
-0.01217999 0.061243724 0.0090600904
-0.010806029 0.058999263 0.008019397
-0.0095820725 0.057084955 0.0079866983
-0.011653704 0.064692922 0.010076101
-0.010272812 0.062461641 0.009147184
-0.0088922633 0.060221381 0.0081067793
-0.007668308 0.058307078 0.0080740796
-0.0093624825 0.066142693 0.010291488
-0.0079841502 0.063923165 0.0092516979
-0.0065875114 0.061681423 0.0083228508
-0.0053718043 0.059773605 0.0081789559
0.05264372 -0.030964561 0.0066290936
0.053520512 -0.032742944 0.006842508
-0.0065954276 0.066838734 0.010382601
-0.0056707533 0.065361507 0.0096896449
-0.0042689857 0.063127153 0.0087611936
-0.0030753082 0.061240133 0.0082838321
-0.0023409303 0.060091548 0.0082641952
0.052002728 -0.024903702 0.0068124593
0.053471472 -0.027200865 0.0067732143
0.054690998 -0.029349089 0.006732712
-0.0050748996 0.067809731 0.010452035
-0.0037549664 0.06656605 0.0099433418
-0.0025684978 0.064694881 0.0094107259
-0.0013865387 0.062824935 0.0087111583
-0.00018237664 0.060930807 0.0083450601
0.052692536 -0.021767277 0.0069325408
0.053916488 -0.023681587 0.0068998416
0.055385243 -0.025978751 0.0068605966
0.056364402 -0.027510194 0.0068344432
-0.0018283948 0.067753129 0.010419114
-0.00066130859 0.065912798 0.0094977897
0.00053605629 0.064031623 0.0090207113
0.0020106793 0.061926894 0.0084319068
0.053382341 -0.018630849 0.0070526218
0.054606296 -0.020545157 0.0070199226
0.055830259 -0.022459466 0.0069872234
0.057299003 -0.024756623 0.0069479789
0.057512656 -0.026776932 0.0068868664
0.059823323 -0.027832272 0.0089109056
0.00048942218 0.068915106 0.010625711
0.0016514527 0.06733679 0.010102093
0.0028471155 0.065466568 0.0095697241
0.0042768461 0.063229539 0.0086418474
0.005600797 0.061496638 0.0085063865
0.055082463 -0.015388439 0.0072011156
0.055678893 -0.01716429 0.0071574985
0.056902848 -0.019078592 0.0071247993
0.058126759 -0.020992937 0.0070920996
0.058340456 -0.023013199 0.0070309881
0.061723974 -0.026618535 0.0089977123
0.0029145065 0.069966502 0.010720086
0.003955489 0.068757057 0.010706069
0.0051396033 0.066919595 0.0097852377
0.00658633 0.064666346 0.0091908956
0.0080379825 0.062405989 0.0085964045
0.0097826645 0.061363395 0.0086052101
0.057065219 -0.013852661 0.0073005185
0.057975389 -0.015697753 0.0072623445
0.059199348 -0.017612068 0.0072296755
0.059976473 -0.019164698 0.0071978276
0.0058104536 0.069763124 0.010784887
0.0070627173 0.068094216 0.010427364
0.0085067218 0.065856732 0.0097222123
0.0099517498 0.063628107 0.0086837867
0.011399155 0.061532974 0.0086506773
0.057823978 -0.010402615 0.0074326191
0.058420409 -0.012178478 0.0073889717
0.05988916 -0.014475641 0.0073497565
0.061113115 -0.016389947 0.0073170573
0.062138248 -0.017712312 0.0072989073
0.0072396616 0.070318818 0.010838402
0.0089381197 0.069127604 0.010841223
0.010417807 0.067057721 0.010031253
0.011871194 0.064820342 0.0092151733
0.013334269 0.062553056 0.0087319538
0.014627218 0.060952399 0.0087112747
0.05911465 -0.0088081304 0.0075168563
0.06033418 -0.010956362 0.0074763834
0.061802924 -0.013253519 0.0074371384
0.063026883 -0.015167831 0.0074044392
0.064413831 -0.017039459 0.0081778485
0.065998189 -0.019069625 0.0093512638
0.066762902 -0.020544754 0.0093216551
0.01107049 0.069909208 0.010919508
0.012710717 0.068466581 0.010801394
0.014166651 0.066238627 0.0099856509
0.015473384 0.06402988 0.0092086028
0.016858466 0.062330488 0.0089545846
0.018227471 0.060440045 0.0087832808
0.019823363 0.059148379 0.0087802066
0.06056555 -0.0054167705 0.0076641226
0.061161932 -0.0071926587 0.0076204743
0.062630676 -0.0094898315 0.0075812293
0.064042918 -0.011720888 0.0078763925
0.065396383 -0.013878709 0.0085061314
0.06674128 -0.016025575 0.0091360295
0.06789884 -0.017855886 0.0094380695
0.06786795 -0.019482093 0.0093838423
0.014809946 0.069084249 0.010984664
0.016451649 0.067641333 0.010866617
0.017673116 0.065788753 0.010113006
0.018895676 0.063899264 0.0098030986
0.020373248 0.06165107 0.0089872293
0.021878479 0.05951719 0.0088430727
0.061847258 -0.0020820824 0.007805327
0.062234525 -0.0038117974 0.0077580502
0.06345848 -0.005726099 0.0077253515
0.064869732 -0.0079614893 0.0080203805
0.066221327 -0.010127882 0.0086497637
0.067564294 -0.01228335 0.0092793051
0.06854856 -0.014406547 0.0095674628
0.069176264 -0.016504647 0.009513977
0.018549446 0.068259336 0.011049851
0.019567534 0.066946015 0.011031824
0.020798629 0.065099232 0.010167484
0.0222694 0.062830634 0.009795621
0.023757748 0.060582481 0.0089244451
0.025027668 0.058877256 0.0088997493
0.062327903 0.0011004868 0.0079217786
0.062924333 -0.00067536684 0.0078781312
0.064148292 -0.0025896768 0.0078454325
0.065343216 -0.0044749104 0.0079797637
0.066664837 -0.0066206269 0.0087759476
0.068037167 -0.0088150175 0.0092381369
0.069232769 -0.010899458 0.0096995523
0.021042433 0.067709371 0.011093329
0.02268647 0.066265896 0.010975292
0.024169156 0.064032048 0.010159998
0.025647847 0.061767343 0.00967729
0.027140263 0.059507437 0.0089726122
0.028468324 0.057767443 0.0089481957
0.029864058 0.056933366 0.0089552337
0.063155703 0.0048642131 0.008065871
