# .PCD v0.7 - Point Cloud Data file format
VERSION 0.7
FIELDS x y z
SIZE 4 4 4
TYPE F F F
COUNT 1 1 1
WIDTH 1266
HEIGHT 1
VIEWPOINT 0 0 0 1 0 0 0
POINTS 1266
DATA ascii
0.062043026 0.037603453 0.0099330433
-0.04956004 -0.057963066 0.01207002
-0.04793267 -0.05714871 0.01156479
-0.046021249 -0.05568327 0.010374953
0.061226524 0.031898443 0.0086078122
0.061794702 0.033883881 0.008988223
0.063624389 0.035540778 0.010271769
-0.046259634 -0.059161406 0.011652947
-0.044340141 -0.057705693 0.010463557
0.062053032 0.030433055 0.0086667566
0.063421875 0.031835366 0.0092228595
0.064915702 0.033244241 0.010614253
-0.044406965 -0.060659606 0.011726639
-0.04289915 -0.059439234 0.01053944
0.063341901 0.028764734 0.0087385224
0.06479986 0.030074008 0.0094656264
0.066215299 0.031534795 0.010687499
-0.043543931 -0.06169663 0.012272379
-0.042196263 -0.060751092 0.011008657
0.064560726 0.027494753 0.0087962979
0.066237181 0.028342463 0.0095413821
0.06749063 0.029562561 0.010769018
0.067741059 0.027201906 0.0088482993
0.06931486 0.026878865 0.0088798581
-0.027121177 -0.073277667 0.012870214
-0.025924496 -0.071889676 0.012465554
-0.023974689 -0.07071235 0.011027181
-0.02652316 -0.074998237 0.012934462
-0.024730338 -0.073336676 0.012487127
-0.022707272 -0.071943477 0.01132892
-0.021217979 -0.071014613 0.010873699
-0.025548948 -0.076337084 0.012991247
-0.023356955 -0.075027414 0.012877612
-0.021224508 -0.073971048 0.012371217
-0.019489933 -0.072459616 0.011144151
-0.017884526 -0.071962774 0.010949177
0.070120014 0.00070380757 0.011747911
0.071843006 0.0021349569 0.011724087
0.07385315 0.0038046404 0.011696297
0.075001799 0.0047587524 0.011680414
-0.019549379 -0.075534157 0.012933849
-0.017743589 -0.074220084 0.011752608
-0.015949907 -0.073112436 0.011012594
0.069638245 -0.0016365548 0.011818021
0.07087931 -0.00081651524 0.01140752
0.072797038 0.00098723965 0.011774347
0.074807175 0.0026569252 0.011746555
0.076517977 0.0039567514 0.011726868
-0.017511994 -0.07771305 0.013143457
-0.015974291 -0.076266356 0.012699756
-0.014151239 -0.074583806 0.01158503
-0.012354287 -0.073433824 0.011071066
0.070032582 -0.0057828063 0.0099576199
0.070704445 -0.0043594032 0.010491823
0.072367214 -0.0025974906 0.010801842
0.074589349 -0.00074173207 0.011316019
0.076476745 0.00064840511 0.011834516
0.077928782 0.0020161944 0.011809151
-0.016295198 -0.079718404 0.013225286
-0.014320001 -0.078165948 0.013200856
-0.012506564 -0.076422736 0.012355053
-0.010633521 -0.074876875 0.011341334
-0.0089881122 -0.074028775 0.011135415
0.070457995 -0.0076031657 0.010022846
0.072152793 -0.0059780502 0.009992308
0.074135266 -0.0044140215 0.010610876
0.076194294 -0.0028180594 0.01121034
0.078146316 -0.0013601076 0.011922478
0.079056427 -0.00011905297 0.011894024
-0.012888955 -0.079887517 0.013276245
-0.010858654 -0.078307793 0.012918142
-0.0089065265 -0.076632038 0.011949384
-0.0072329491 -0.075446159 0.011296148
-0.0053268098 -0.074900262 0.011212762
0.07270655 -0.0092351893 0.010106207
0.073836282 -0.0080033028 0.010080978
0.075585097 -0.0065307375 0.010770927
0.077708192 -0.0047409059 0.011693659
0.079137355 -0.0032531654 0.011997606
-0.0094964039 -0.080464892 0.013340383
-0.0074639334 -0.078879938 0.013002978
-0.0055971956 -0.077267729 0.012287213
-0.0035719536 -0.07578329 0.011356019
-0.0016001088 -0.075065278 0.011267877
0.073824957 -0.011653686 0.010200231
0.075380623 -0.010032176 0.010501506
0.077220671 -0.0084643103 0.011427729
0.079045564 -0.0067801555 0.012111722
-0.0058167418 -0.080803685 0.013400554
-0.003880199 -0.079031073 0.01282262
-0.0019044976 -0.077545278 0.011970322
-7.1261085e-05 -0.075874008 0.011314738
0.0015802172 -0.075358137 0.011319895
0.073262319 -0.015164253 0.010307538
0.075019456 -0.013629625 0.01068101
0.076892771 -0.012049618 0.011331712
0.078567222 -0.010470704 0.011841205
0.080781735 -0.008968927 0.012206477
-0.0022925097 -0.080936924 0.012701445
-0.00026366979 -0.079462796 0.012430177
0.0015694783 -0.077631094 0.011894378
0.0033747551 -0.076446354 0.01137942
0.0052741957 -0.07587637 0.011386096
0.072418362 -0.020430075 0.010468482
0.073170841 -0.018718179 0.010422555
0.074705996 -0.017015358 0.010787546
0.076558284 -0.015492263 0.011262805
0.078494824 -0.013831984 0.011918093
0.080327228 -0.012159673 0.012304765
0.0011098004 -0.080919646 0.012496124
0.003191872 -0.079514928 0.01247796
0.0049631991 -0.078167208 0.01212396
0.0070369132 -0.076783553 0.011439295
0.009033653 -0.075688213 0.011430097
0.072843783 -0.022250425 0.010533708
0.074400783 -0.020614343 0.010834488
0.07614667 -0.018916009 0.011469341
0.078165181 -0.017239375 0.011441429
0.079909131 -0.015685203 0.011914198
0.080994107 -0.013545926 0.012358996
0.0048577068 -0.080997363 0.012691614
0.0065652393 -0.0800239 0.012789766
0.0086344872 -0.078450724 0.012390708
0.010623996 -0.076898247 0.01176379
0.012246659 -0.075627811 0.011471014
0.07125055 -0.027269151 0.010676577
0.072235771 -0.025754943 0.01075139
0.073985375 -0.024202479 0.011146403
0.075947076 -0.022546308 0.011799819
0.077633493 -0.02072834 0.012120233
0.07951536 -0.019235039 0.012275192
0.010209246 -0.080269895 0.013179951
0.012289184 -0.078621835 0.012470028
0.013882331 -0.077165067 0.012043397
0.015998056 -0.075789899 0.011597793
0.01842987 -0.07466533 0.011522003
0.01989633 -0.073838539 0.011514523
0.070583194 -0.031177165 0.010795505
0.071918756 -0.029219111 0.010931202
0.07359086 -0.027573517 0.011451541
0.075564705 -0.02603838 0.012139206
0.077344023 -0.024338538 0.012663263
0.013907738 -0.080632649 0.013157804
0.015570104 -0.079251885 0.0128164
0.017512495 -0.077395134 0.012516296
0.019617986 -0.075840726 0.012021028
0.02141623 -0.07448592 0.011667169
0.023591934 -0.073377289 0.011548768
0.067089036 -0.037573043 0.01095805
0.068170689 -0.036283333 0.010930295
0.069759488 -0.034547638 0.011005915
0.071383543 -0.032749545 0.011312439
0.073503755 -0.031247638 0.012145272
0.075165786 -0.029521996 0.012517846
0.077003464 -0.02801674 0.012779017
0.019048296 -0.0791988 0.013367108
0.021112595 -0.077599868 0.013071344
0.022889649 -0.076231629 0.012800123
0.025018245 -0.074694671 0.012236235
0.027128251 -0.073226377 0.01186387
0.028844284 -0.07188382 0.011569968
0.031179378 -0.070335448 0.011550487
0.064188711 -0.042916726 0.011094109
0.065559901 -0.041386493 0.011062368
0.067463823 -0.039527491 0.011180888
0.069221474 -0.037995599 0.011584043
0.071103305 -0.036282346 0.011907495
0.072893113 -0.034553606 0.012437656
0.074831605 -0.033099256 0.012839305
0.024394536 -0.078021146 0.013712584
0.026475865 -0.076438725 0.013355057
0.028587043 -0.074881814 0.012887561
0.030183351 -0.073276527 0.012383874
0.032262757 -0.071658842 0.012108524
0.034326598 -0.070018277 0.011915595
0.03618177 -0.068829931 0.011768094
0.038393851 -0.067473017 0.011553106
0.040680829 -0.065866768 0.011531097
0.042418182 -0.064423703 0.01150708
0.044415623 -0.063057981 0.011489042
0.046712454 -0.061345808 0.011463677
0.048449766 -0.059902698 0.011439658
0.050187122 -0.058459628 0.011415641
0.052214026 -0.056776036 0.011387636
0.054240882 -0.055092398 0.011359586
0.055978231 -0.053649332 0.011335569
0.05803781 -0.051612485 0.011296465
0.059791483 -0.049992763 0.011266896
0.061288327 -0.048260365 0.011230198
0.063180752 -0.046297211 0.011191196
0.065101624 -0.044603836 0.011161449
0.066963375 -0.043069873 0.011422024
0.068662301 -0.041396018 0.011854547
0.070736863 -0.039969806 0.012085724
0.033877786 -0.073651932 0.013446043
0.035952896 -0.072041854 0.013170904
0.037723124 -0.070647866 0.012982155
0.039596554 -0.068907365 0.012616693
0.041699018 -0.067162231 0.012254114
0.043431547 -0.065723091 0.012230157
0.045525905 -0.064097039 0.011954748
0.04757395 -0.062433716 0.011844301
0.049308911 -0.060992636 0.011820312
0.051186252 -0.059500515 0.011863247
0.053122502 -0.057763774 0.011704952
0.055092033 -0.056188941 0.011740361
0.056967787 -0.054698162 0.011783312
0.0588753 -0.052943982 0.011715031
0.060757011 -0.051331934 0.011990667
0.062687837 -0.049615581 0.01221042
0.064676546 -0.047926113 0.012265072
0.066406727 -0.046489004 0.01224116
0.067913659 -0.044587862 0.01219909
0.044868696 -0.067552388 0.013143047
0.046957802 -0.0659348 0.012867835
0.049051531 -0.064314276 0.012592613
0.050781701 -0.062877163 0.0125687
0.05280022 -0.061200526 0.012540803
0.054762956 -0.059491038 0.012677821
0.056587745 -0.058020804 0.012795218
0.058507167 -0.056267787 0.012655742
0.060407769 -0.054645065 0.012928209
0.062351655 -0.053049892 0.013068725
0.06422139 -0.051275462 0.013061265
-0.049040318 0.034488689 0.0060514901
-0.047561925 0.035962243 0.0060230223
-0.045792788 0.037677318 0.0059905387
-0.043757509 0.039367862 0.0059623988
-0.042013012 0.040816937 0.0059382748
-0.04009109 0.042249653 0.0059170621
-0.037700992 0.043907546 0.005894715
-0.035956498 0.045356616 0.0058706058
-0.033921219 0.047047164 0.0058424659
-0.031885941 0.048737708 0.005814326
-0.030432191 0.049945261 0.0057942346
-0.053697158 0.027673878 0.0062122373
-0.051744271 0.029716952 0.0061714789
-0.050109643 0.03163607 0.0061305352
-0.048365101 0.0330851 0.0061064111
-0.046620607 0.034534171 0.0060823029
-0.044585325 0.036224719 0.0060541481
-0.042573791 0.037983973 0.0056899069
-0.040820044 0.039411232 0.0057777967
-0.038770314 0.041054927 0.0059737442
-0.036735039 0.042745478 0.0059456201
-0.034990542 0.044194546 0.005921511
-0.032955259 0.045885094 0.0058933562
-0.030919984 0.047575641 0.0058652321
-0.029175488 0.049024712 0.005841108
-0.027140202 0.050715264 0.0058129532
-0.025050016 0.052170802 0.0057932464
-0.023143578 0.053298347 0.0057817996
-0.057481762 0.021583628 0.0063609378
-0.056110404 0.023143705 0.0063282102
-0.05447574 0.025062783 0.0062872665
-0.052731201 0.026511813 0.0062631434
-0.050695963 0.028202401 0.0062349886
-0.048660681 0.029892949 0.0062068785
-0.046945859 0.031401642 0.0058468236
-0.045226932 0.032915138 0.0054867445
-0.043211926 0.0346759 0.0051225387
-0.04116831 0.036373444 0.0050942637
-0.039416593 0.037828431 0.0050700493
-0.037372973 0.039525971 0.0050418181
-0.03532932 0.041223474 0.0050135432
-0.033577636 0.042678505 0.0049893288
-0.031825919 0.044133492 0.0049651144
-0.029782303 0.045831036 0.0049368693
-0.027735777 0.047472905 0.0051327981
-0.025816638 0.049096424 0.0053377962
-0.023723437 0.050559148 0.0056635113
-0.021911513 0.052111797 0.0058370475
-0.02017932 0.053427849 0.0058171107
-0.018003594 0.054703068 0.0058044298
-0.015904248 0.056119431 0.0057861125
-0.059521843 0.016942406 0.0064855134
-0.058435734 0.01823747 0.0064576603
-0.057097293 0.019938521 0.0064198738
-0.054858137 0.021381592 0.0060898485
-0.052841917 0.023101524 0.005872882
-0.051121093 0.024592156 0.0055969451
-0.049092066 0.026308617 0.0054428065
-0.047061585 0.028026378 0.0052886521
-0.045309868 0.029481364 0.0052644378
-0.043558188 0.030936398 0.0052402234
-0.041749801 0.032779921 0.0052040583
-0.039713405 0.034623161 0.0051709143
-0.037961684 0.036078151 0.0051467
-0.035918064 0.037775699 0.0051184697
-0.033631921 0.039181475 0.0051029818
-0.031880245 0.040636506 0.0050787674
-0.030128568 0.042091537 0.005054553
-0.028084908 0.043789037 0.005026293
-0.026041295 0.045486581 0.0049980469
-0.024289576 0.046941567 0.0049738176
-0.022245953 0.048639115 0.0049455725
-0.020207947 0.050249323 0.0052536149
-0.01846727 0.05161418 0.0055657271
-0.01662286 0.05331124 0.0057254108
-0.014647503 0.055198841 0.0058330027
-0.012848091 0.056412909 0.0058172811
-0.010966258 0.057274405 0.0058142086
-0.06057433 0.012532194 0.0066157207
-0.059000105 0.014709814 0.0065654861
-0.057162028 0.016465722 0.0064491853
-0.055489883 0.017988134 0.0058380309
-0.0532468 0.019436799 0.0054870564
-0.051203143 0.0211343 0.0054587964
-0.049451467 0.022589333 0.0054345671
-0.047407806 0.024286833 0.0054063369
-0.045586135 0.026081754 0.0053719189
-0.044122178 0.027755691 0.0053366655
-0.042929653 0.028992813 0.0053121187
-0.030375894 0.039420459 0.0051385555
-0.028648941 0.040608373 0.0051227501
-0.026367733 0.041960731 0.0051089795
-0.024343899 0.043444581 0.0050874557
-0.022592219 0.044899616 0.0050632264
-0.020548563 0.046597112 0.0050349953
-0.018504905 0.048294611 0.0050067212
-0.016753227 0.049749646 0.0049825059
-0.015025887 0.051500067 0.0051302239
-0.013109165 0.053092692 0.0052553192
-0.011202976 0.054659717 0.0057297833
-0.009187161 0.05619844 0.0058731297
-0.0069334195 0.057350226 0.005865531
-0.0052545639 0.05808989 0.0058637401
-0.062246762 0.0078034573 0.0067480411
-0.06114294 0.0095798047 0.006704675
-0.059531473 0.011041095 0.0066783857
-0.057562489 0.012783609 0.006147366
-0.055587236 0.014533986 0.0056161676
-0.053835511 0.015988976 0.0055919532
-0.051791895 0.017686522 0.005563708
-0.049970228 0.019481443 0.0055292901
-0.048481505 0.021422448 0.0054856427
-0.047021765 0.022634968 0.0054654591
-0.021330314 0.043975245 0.0051102713
-0.019306483 0.045459092 0.0050887475
-0.017105157 0.046780318 0.0050749192
-0.015298324 0.047999367 0.0050591575
-0.013546643 0.049454402 0.0050349422
-0.011502992 0.051151898 0.005006697
-0.0094593707 0.052849445 0.004978437
-0.0075654364 0.054432426 0.0053157797
-0.0055040279 0.055862546 0.0057331277
-0.0037071218 0.057410859 0.0059065996
-0.0015436979 0.058553051 0.0058980901
-0.062833086 0.004369786 0.0068525095
-0.061608292 0.0061402121 0.0067275623
-0.059655946 0.0075994991 0.0062889643
-0.057965327 0.0090893572 0.0058459062
-0.056120787 0.010850177 0.0057295468
-0.054354273 0.012881085 0.0056866761
-0.052623101 0.014530416 0.0056558168
-0.051138636 0.016010053 0.0056272084
-0.01356384 0.046358045 0.0051359823
-0.011849246 0.047412399 0.0051243808
-0.0098056355 0.049109939 0.0050961208
-0.007761973 0.050807446 0.0050678747
-0.0060102991 0.052262474 0.0050436603
-0.0039720275 0.053942505 0.005078434
-0.0019694138 0.055516027 0.0054914383
-0.00020790412 0.05723479 0.005882035
0.0017795095 0.058694188 0.0059377998
-0.064390197 -0.00085244718 0.0070025381
-0.063577116 0.00068237697 0.0069631869
-0.062003668 0.0025026861 0.0067102481
-0.060211301 0.0042453608 0.006275801
-0.058031395 0.0055999123 0.0058757504
-0.056635991 0.0070877331 0.0058456929
-0.010326075 0.045817479 0.0051968265
-0.0081082368 0.047067944 0.0051855594
-0.0060645808 0.04876544 0.0051572844
-0.0043129055 0.050220475 0.0051330691
-0.0022692438 0.051917978 0.005104824
-0.00022563001 0.053615522 0.0050765639
0.0016314295 0.055462815 0.005507852
0.0035027699 0.057015263 0.0060157087
0.0053059026 0.058131009 0.0060032848
0.0071347789 0.058558784 0.0060136802
-0.064685777 -0.0040446017 0.0071029887
-0.063872695 -0.0025097767 0.0070636394
-0.062277898 -0.0010431691 0.006925758
-0.060359217 0.00069257291 0.0060885847
-0.058328211 0.0023946422 0.0059766164
-0.056710117 0.0038619544 0.005950205
-0.0065543908 0.046386093 0.0052285288
-0.0045973137 0.047148723 0.0052297311
-0.0028579948 0.048470199 0.0052097207
-0.00081434252 0.050167695 0.0051814755
0.0012292776 0.051865239 0.0051532146
0.003127825 0.05349952 0.0053070066
0.0051372414 0.054854173 0.0060081147
0.006937725 0.056430683 0.0060806628
0.0089376057 0.058002558 0.0060559204
0.010909719 0.058747772 0.0060578529
-0.063946486 -0.0057223616 0.0071677184
-0.062369373 -0.0043992074 0.0068725972
-0.060705356 -0.0030458579 0.00620622
-0.058781344 -0.0013350339 0.0060925549
-0.057942163 0.00074278365 0.0060357535
-0.0018880764 0.047303356 0.0052607814
0.00067764684 0.048818089 0.0052454975
0.0029266682 0.049823236 0.0052426541
0.0046783523 0.051278275 0.0052184239
0.0066734338 0.052873444 0.0055681039
0.0083866427 0.054687604 0.0061569912
0.010421921 0.056378148 0.0061288364
0.012444865 0.057935722 0.0061048837
0.014103173 0.058453716 0.0061100721
-0.064249918 -0.009772297 0.0072961347
-0.062930122 -0.0079612015 0.0070668878
-0.060912404 -0.0064740302 0.0063322484
-0.059020691 -0.0050844015 0.00621197
-0.057560958 -0.00387188 0.0061917705
0.004722964 0.048849709 0.0052984105
0.0063205957 0.049472265 0.005299395
0.0084194038 0.050933775 0.0052796025
0.010149248 0.052787159 0.0057423338
0.012112337 0.054344542 0.0062178988
0.014147623 0.05603509 0.0061897589
0.015725125 0.057290863 0.0061697597
-0.064167991 -0.012945552 0.0074010026
-0.063263595 -0.011688553 0.0072607687
-0.061348185 -0.0099880788 0.0064246841
-0.059827212 -0.0079733422 0.0062956689
-0.05805077 -0.006251242 0.0062630447
-0.05659103 -0.0050387173 0.006242862
0.010199214 0.049782168 0.0053409757
0.011917933 0.050881051 0.0053279782
0.013868009 0.052421324 0.0058872905
0.015838034 0.054001477 0.0062788362
0.017637482 0.0552155 0.0062631294
0.019500565 0.056454331 0.0062474804
0.020973038 0.057284601 0.0062399479
-0.064222075 -0.01642823 0.0075141732
-0.063408993 -0.014893404 0.007474822
-0.061898112 -0.013434138 0.0067801764
-0.0604343 -0.012035199 0.0064204419
0.013470362 0.049352705 0.0053986739
0.015124511 0.050585795 0.0053804144
0.016876219 0.052040778 0.0053562
0.019380383 0.053997248 0.0063262237
0.020775989 0.055156499 0.0063069314
0.022692468 0.056530066 0.0062875794
-0.063279085 -0.018482452 0.0075939493
-0.061952222 -0.016926372 0.0068936897
-0.060371712 -0.015441511 0.0065326896
-0.059569664 -0.013923546 0.0064937025
0.015391838 0.04765182 0.0054799253
0.016821904 0.048543792 0.0054698531
0.018573582 0.049998824 0.0054456387
0.020946648 0.051877733 0.0062496597
0.022466451 0.053122848 0.0063959779
0.024501679 0.05481343 0.0063678389
0.026463071 0.055705931 0.0063648233
-0.063522078 -0.022394855 0.007718645
-0.062246632 -0.020649172 0.0073450236
-0.060306806 -0.01897398 0.0066490686
-0.059114285 -0.017736854 0.0066244919
0.018552259 0.046857946 0.005548045
0.020270975 0.047956824 0.0055350475
0.022314638 0.049654331 0.0055068173
0.024358246 0.051351864 0.0054785414
0.026278589 0.052891016 0.006037497
0.02822738 0.054470371 0.0064287754
0.02987339 0.054855354 0.0064381361
-0.062492047 -0.023831103 0.0077793589
-0.060832597 -0.022404529 0.0071711615
-0.058851898 -0.020724256 0.0067257201
-0.057133187 -0.019625382 0.0067126928
0.021240905 0.046789989 0.0055861231
0.023284556 0.048487488 0.005557863
0.025825514 0.049735148 0.005550988
0.027693391 0.051237538 0.005708701
0.029630456 0.052598868 0.0064086234
0.031323705 0.053955305 0.0064869169
-0.061098702 -0.025760734 0.0078610508
-0.05915913 -0.024346964 0.0070402306
-0.057154506 -0.022766257 0.0068151588
-0.05540283 -0.021311231 0.0067909444
-0.053466078 -0.019603858 0.0067609381
-0.052384418 -0.017817769 0.0067169098
0.027584728 0.048360944 0.0056193741
0.029262232 0.049014628 0.0056204172
0.031091429 0.050599199 0.0060599186
0.032869779 0.052433189 0.0065573379
0.034274258 0.053108744 0.0065539638
-0.060589563 -0.029371914 0.0079859504
-0.059390035 -0.027726158 0.0077479957
-0.057408411 -0.026238119 0.0070253657
-0.055679098 -0.024710838 0.0068984237
-0.053947926 -0.023061506 0.0068675652
-0.053022616 -0.02179978 0.0068386244
0.031057147 0.047194559 0.0057038702
0.032977831 0.048795912 0.0057541057
0.034580629 0.050420769 0.0065625561
0.036285006 0.051635835 0.0066289641
-0.05956443 -0.031344298 0.0080641303
-0.057751291 -0.02968722 0.007367067
-0.055990022 -0.02806876 0.007004098
0.032998409 0.045707375 0.0057783704
0.034458142 0.046919886 0.0057582306
0.036333572 0.04844911 0.0064002937
0.0382859 0.050056525 0.0067072921
-0.058248576 -0.033075113 0.0081383083
-0.056331422 -0.031454876 0.0071936836
-0.055367883 -0.029665396 0.0070645856
0.033968367 0.044540484 0.0058294768
0.035913046 0.045169607 0.0058348821
0.037870202 0.046785034 0.0061416682
0.039734822 0.04831345 0.0067836354
0.041454718 0.049496476 0.0067678867
-0.05769252 -0.03634572 0.0082526943
-0.056589954 -0.035131596 0.007977522
-0.054937221 -0.033745818 0.0072038146
0.037732504 0.043475527 0.005914568
0.039654102 0.044825111 0.0058960607
0.04149301 0.046339449 0.0066214921
0.043473519 0.047847245 0.0068487618
-0.05632145 -0.038349923 0.0083365105
-0.054935444 -0.037197806 0.0077614086
-0.053531766 -0.03603033 0.0072972542
0.041363854 0.042916659 0.0059812656
0.043301135 0.044401474 0.0062920805
0.04515098 0.045936733 0.0069336351
-0.055163275 -0.040334523 0.0084168836
-0.053496528 -0.038956575 0.0077269645
-0.05234408 -0.037756007 0.0073695267
0.043098353 0.041275352 0.0060580745
0.044777751 0.04267282 0.0062849354
0.046599895 0.044193659 0.0070099626
0.048004411 0.044869162 0.0070065893
-0.053657152 -0.042619452 0.0085116904
-0.05183921 -0.041035134 0.007483542
-0.050671447 -0.04006508 0.0074673444
0.044825409 0.039553888 0.0061374018
0.046266802 0.040570453 0.0062003816
0.0481654 0.041952878 0.0069039855
0.049453322 0.043126076 0.0070829336
-0.052100357 -0.044675358 0.0083495332
-0.050141845 -0.043077081 0.0075729508
0.046300091 0.038017299 0.0062073162
0.047952831 0.038403913 0.0062167533
0.04976571 0.039938293 0.0069412077
0.05114378 0.041092429 0.0071719941
-0.052077979 -0.047593936 0.008695445
-0.050649915 -0.046420272 0.0084259501
-0.048686948 -0.044827364 0.0076496014
0.049407735 0.036653627 0.0062934039
0.051216152 0.038193382 0.0070176087
0.052592706 0.039349351 0.0072483225
-0.050387561 -0.049627546 0.0087844925
-0.049148042 -0.048405591 0.0084751816
-0.047232043 -0.046577644 0.007726253
0.051154576 0.03514586 0.0063660098
0.052944377 0.036387499 0.0069210446
0.054635834 0.03739823 0.0073393909
-0.048697144 -0.051661152 0.0088735539
-0.047350306 -0.050305508 0.0082754232
-0.045534652 -0.048619643 0.0078156926
0.053143915 0.033346374 0.006451373
0.054530237 0.034308635 0.0067243027
0.056555059 0.035765123 0.0074184136
-0.047489684 -0.053113755 0.0089371782
-0.045822434 -0.05224983 0.0085976301
-0.043837257 -0.050661642 0.0079051005
0.054841306 0.031304374 0.0065408126
0.056217108 0.032469768 0.0067712255
0.058004018 0.034022 0.0074947579
0.059649985 0.03440702 0.0075041028
-0.044364721 -0.053981487 0.0087570874
-0.042382348 -0.052411918 0.007981752
0.056296207 0.029554093 0.0066174474
0.057670482 0.030721316 0.0068478025
0.05945294 0.032278921 0.0075710863
0.060615942 0.033244953 0.007554994
-0.042672545 -0.056017201 0.0088462243
-0.04068495 -0.054453921 0.0080711907
0.057847261 0.027179217 0.0067158407
0.059322592 0.028660337 0.0070623057
0.06093049 0.030264864 0.0076566758
-0.040970039 -0.058022171 0.0091012754
-0.038987599 -0.056495879 0.0081605986
0.059343178 0.025040343 0.0068057515
0.060914781 0.026574312 0.0074436171
0.062543064 0.027970137 0.0077532111
-0.041018717 -0.061489746 0.0092974268
-0.039515674 -0.059750192 0.0092605837
-0.037532695 -0.058246158 0.0082372501
-0.036097683 -0.057300754 0.0082254466
0.060561985 0.023234837 0.0068810536
0.062336143 0.024815818 0.0076034684
0.064270429 0.026335549 0.0078297257
0.065928735 0.026853554 0.0078348983
-0.039631732 -0.063073844 0.0093677333
-0.03782526 -0.061783802 0.009349646
-0.035815872 -0.060205985 0.0087411627
-0.033818286 -0.058878303 0.0083074914
-0.031604476 -0.058253255 0.0083165467
0.062259383 0.021192839 0.0069705062
0.064028271 0.02278015 0.0076926202
0.065973185 0.024434926 0.0079145851
0.067981899 0.025839016 0.0078954734
-0.036134843 -0.063817404 0.0094387084
-0.034111559 -0.062193949 0.0090790382
-0.032094281 -0.060632609 0.0083878674
-0.030050633 -0.058935113 0.0083596064
-0.028590895 -0.057722595 0.0083394079
0.063031465 0.017889109 0.0070887962
0.063956775 0.019150835 0.007059915
0.065720432 0.020744421 0.007781758
0.067663603 0.022401316 0.0080036623
0.069365375 0.024033166 0.0079729995
-0.034650486 -0.065441847 0.0095116245
-0.032660618 -0.063939467 0.0091554737
-0.030639382 -0.062382892 0.008464518
-0.028595731 -0.060685396 0.008436243
-0.027135991 -0.059472874 0.0084160594
0.064016275 0.015912736 0.0071665933
0.065539323 0.017426714 0.00723748
0.067180552 0.019109737 0.007922926
0.068877392 0.020603234 0.0080786422
-0.032929044 -0.06681896 0.0090793027
-0.0312247 -0.065806545 0.0086798398
-0.029184479 -0.064133175 0.0085411696
-0.027140826 -0.062435672 0.0085128937
-0.025389144 -0.06098064 0.0084886793
0.064189561 0.012933559 0.0072663128
0.065114871 0.014195294 0.0072374307
0.067182697 0.015637979 0.0078181839
0.068939723 0.017210858 0.0081904214
0.069497004 0.019013137 0.0081389118
-0.031425975 -0.067967564 0.0086366283
-0.029530745 -0.067872673 0.0086588534
-0.027487088 -0.06617517 0.0086305933
-0.025443466 -0.06447763 0.0086023472
-0.023691751 -0.063022636 0.0085781179
-0.022281464 -0.062344354 0.0085747084
0.065498121 0.010850407 0.007351933
0.066812262 0.012153291 0.0073268702
0.068601251 0.013493422 0.0082304999
0.070192017 0.014924916 0.008281895
-0.02772991 -0.069558702 0.0093097547
-0.025911322 -0.068125591 0.0091702193
-0.023814483 -0.066652313 0.0087952344
-0.021994354 -0.065064639 0.0086675268
-0.020777114 -0.063560404 0.0086345403
0.066757932 0.0086562997 0.0074404934
0.068381406 0.010079431 0.0077491244
0.069939792 0.011621474 0.0083865775
-0.026322616 -0.070891403 0.0098009575
-0.024682311 -0.069739327 0.0097851502
-0.022347752 -0.068630695 0.0095298765
-0.020539453 -0.066814914 0.0087441783
0.067920901 0.0066635092 0.0075212047
0.069964558 0.0083610127 0.0074929316
0.071189821 0.0096232193 0.0076680966
-0.020272292 -0.070145421 0.0098572718
-0.018850083 -0.068779126 0.0091644889
-0.017127508 -0.067802519 0.0088219997
0.069133312 0.0052049486 0.0075850533
0.070909753 0.0069270516 0.0075524002
-0.018580478 -0.071336001 0.0099187717
-0.017172463 -0.070686482 0.0098051252
-0.015397252 -0.069417544 0.0090090791
-0.013958013 -0.06849844 0.008887006
-0.015474762 -0.071997546 0.009981852
-0.013967649 -0.071033418 0.0096368799
-0.011929982 -0.069615811 0.00895066
-0.0099497456 -0.068867549 0.0089525478
-0.012284379 -0.072490625 0.010040533
-0.010339275 -0.071382709 0.009630003
-0.0083959401 -0.069549352 0.0089956066
-0.0064017298 -0.068386085 0.0089841504
-0.004941998 -0.067173578 0.0089639518
-0.0084622409 -0.07288143 0.010004228
-0.0067172418 -0.071530037 0.0093329391
-0.0049468274 -0.070136368 0.0090608308
-0.003182098 -0.068804987 0.0090408381
-0.0067610573 -0.07412342 0.010167611
-0.0050822045 -0.073383756 0.010165835
-0.0032687485 -0.072123498 0.0093705328
-0.0014294856 -0.07056798 0.0091218641
-0.00023106104 -0.068684869 0.0090762358
0.070286609 -0.011107083 0.0091345208
0.071676292 -0.0096253566 0.0091046048
-0.0035676016 -0.074417472 0.01021983
-0.0016516586 -0.073867582 0.01013643
0.0002157795 -0.072477244 0.0092896447
0.070676073 -0.014630599 0.0092549473
0.071622223 -0.013108034 0.0092177764
0.072679728 -0.011542044 0.0091806762
0.0001416539 -0.07493785 0.010286321
0.0018989964 -0.074012794 0.0098177129
0.0039458238 -0.072800711 0.0094333598
0.0062020337 -0.071971089 0.0092695188
0.06974972 -0.018837793 0.0093801804
0.071400583 -0.016819179 0.0093361866
0.072602972 -0.015076282 0.0092952233
0.0033351053 -0.07523191 0.010338539
0.0053186147 -0.07450936 0.010250404
0.0074096471 -0.073106736 0.0095451502
0.0092460075 -0.071943477 0.0093092555
0.01084363 -0.071320929 0.0093101813
0.067804173 -0.023490828 0.0092562409
0.069079615 -0.021727197 0.0094657345
0.070691042 -0.020265857 0.00943946
0.072080709 -0.018784139 0.0094095292
0.0070772446 -0.075397648 0.010393879
0.0089389645 -0.074615188 0.010393153
0.010790153 -0.073581591 0.010050498
0.012694878 -0.072076999 0.0095135719
0.014926071 -0.070888683 0.0093504954
0.066017069 -0.028450688 0.0086441515
0.067184821 -0.027480643 0.0086279977
0.068687811 -0.025343571 0.0093786567
0.070636965 -0.023748541 0.0095526315
0.07178513 -0.021976288 0.0095099807
0.012498154 -0.074823633 0.010447427
0.014447341 -0.073660001 0.010220956
0.016402001 -0.072063431 0.0095754107
0.018412231 -0.07107497 0.0094031347
0.020394079 -0.07004527 0.0093958685
0.06386964 -0.034179408 0.0088028535
0.064774446 -0.032723386 0.0087673422
0.066460498 -0.030646563 0.0087219262
0.068237029 -0.028910613 0.0091057494
0.070058003 -0.027453145 0.0095826564
0.071262889 -0.025684135 0.0096242717
0.016015232 -0.074521534 0.010484464
0.017897032 -0.073659994 0.010481391
0.019736951 -0.072499789 0.010245644
0.021875108 -0.070933655 0.0096948575
0.02395441 -0.06943021 0.0094232801
0.025936218 -0.068400458 0.0094159981
0.02737123 -0.067455053 0.0094042234
0.061237268 -0.039324734 0.0089360103
0.062729977 -0.037756059 0.0089046387
0.064255685 -0.035831273 0.0088620652
0.066126846 -0.034220919 0.0091982009
0.067871928 -0.032410249 0.009598881
0.069572747 -0.030894151 0.009772121
0.07067658 -0.0291178 0.0097287549
0.020953184 -0.073366515 0.01051256
0.023200376 -0.072285675 0.010507215
0.025491579 -0.071137711 0.01033344
0.027326027 -0.069784783 0.0098967645
0.029403204 -0.068128422 0.009703544
0.031503163 -0.066488616 0.0094277496
0.033230115 -0.065300703 0.0094119292
0.03524901 -0.063870274 0.009392078
0.054517627 -0.047865104 0.0091256872
0.056561239 -0.046167556 0.0090974271
0.058362406 -0.044178341 0.0090564089
0.060005218 -0.042443909 0.0090216184
0.061921652 -0.041117415 0.0092539592
0.063748255 -0.039412335 0.0094393501
0.065642484 -0.037786961 0.0097783469
0.067162074 -0.035769504 0.0098994197
0.068902597 -0.03378351 0.0098576741
0.027246362 -0.072067991 0.010554045
0.02867551 -0.071126483 0.010542326
0.030686151 -0.06970194 0.010522562
0.032779835 -0.068067364 0.010246873
0.034586821 -0.066671886 0.0099752033
0.036356151 -0.065237775 0.0098685054
0.03843949 -0.063578278 0.0096752774
0.040380485 -0.061860833 0.0095767695
0.042300414 -0.060478799 0.0093752509
0.044230245 -0.059040189 0.0093539357
0.046630181 -0.057375479 0.009331503
0.048304658 -0.055590078 0.0092954608
0.049891047 -0.054173693 0.0092703011
0.051815912 -0.052171357 0.0092305215
0.053905822 -0.050626181 0.0093897702
0.055773009 -0.049269415 0.0094962632
0.057669468 -0.047471177 0.0094884029
0.059642956 -0.045859393 0.0096288007
0.061302837 -0.044375125 0.0098525248
0.063163534 -0.042896971 0.0099881953
0.065019503 -0.040937852 0.010039859
0.066207156 -0.03970582 0.010015408
0.035964128 -0.067773402 0.010529891
0.03768402 -0.066590376 0.010514143
0.039694615 -0.06516578 0.010494377
0.041748505 -0.06331078 0.01031816
0.043537214 -0.061957404 0.010167825
0.045617588 -0.060407806 0.010042566
0.047692761 -0.05873834 0.0098905694
0.04944085 -0.057286289 0.0098663997
0.051397242 -0.055658404 0.010072735
0.053312432 -0.053873356 0.0099988561
0.055223573 -0.052604597 0.010190672
0.057168335 -0.050946172 0.010262446
0.059175014 -0.048984695 0.010225059
0.060678013 -0.047245093 0.010188215
0.061841063 -0.046279106 0.010172138
-0.040559534 0.032184571 0.0042387471
-0.038800672 0.033645563 0.0042144265
-0.037041817 0.035106555 0.0041901059
-0.035282951 0.03656755 0.0041657863
-0.034110364 0.037541527 0.0041495878
-0.044668432 0.025800703 0.0043927124
-0.04328021 0.027349884 0.0043605585
-0.041796632 0.029052621 0.0043246644
-0.039878778 0.03076946 0.004294158
-0.037826788 0.032473955 0.004265747
-0.036067881 0.033934902 0.0042414274
-0.034309026 0.035395898 0.0042171227
-0.032257028 0.037100397 0.0041887704
-0.030149633 0.038567919 0.0041688466
-0.028271198 0.039816923 0.0041530589
-0.026493449 0.040897503 0.0041414341
-0.050049238 0.01737001 0.0045966515
-0.048954189 0.018675731 0.0045685582
-0.047604755 0.020390809 0.0045304792
-0.045884639 0.022017648 0.0045002336
-0.044037342 0.023849167 0.0044650109
-0.041985344 0.025553664 0.0044366298
-0.040226441 0.027014613 0.0044123102
-0.038174447 0.028719112 0.0043839589
-0.020791437 0.042860981 0.0041533196
-0.01887653 0.044253469 0.0041333092
-0.016671887 0.045518838 0.0041213138
-0.054744411 0.010499125 0.004758724
-0.053356227 0.012048354 0.0047265841
-0.051763315 0.013470519 0.0047013173
-0.049830552 0.015481052 0.0046613803
-0.047902759 0.017172385 0.0046317736
-0.04614386 0.018633328 0.004607453
-0.044385005 0.02009432 0.0045831334
-0.042333011 0.021798819 0.004554796
-0.017415678 0.042496037 0.0042102681
-0.015363684 0.044200536 0.0041819317
-0.01362963 0.045393296 0.0041660098
-0.055693332 0.0070701609 0.0048582144
-0.054356802 0.0088405078 0.0048181815
-0.052304801 0.010545004 0.0047897846
-0.050545905 0.01200595 0.0047654649
-0.048493907 0.01371045 0.0047371285
-0.046441872 0.015414903 0.0047087325
-0.044709433 0.016915383 0.0043491954
-0.013902791 0.042443056 0.0042588906
-0.011850793 0.044147555 0.0042304946
-0.0098732589 0.045047402 0.0042274296
-0.055633571 0.003818766 0.0049653426
-0.05494795 0.0053785746 0.0049234908
-0.052895948 0.0070830719 0.0048951553
-0.050631948 0.0086340597 0.0046926672
-0.048865374 0.0099778436 0.0046040621
-0.010389903 0.042390078 0.0043074535
-0.008631045 0.04385107 0.0042831479
-0.0068846066 0.045177966 0.004263035
-0.005179544 0.046057843 0.0042570001
-0.057203516 -0.0014464335 0.005116595
-0.056641627 0.00037062637 0.0050646923
-0.055002473 0.0018672328 0.0050376272
-0.053114075 0.0033455263 0.0048604971
-0.05123049 0.0051735006 0.0045128195
-0.0051678568 0.043261707 0.0043486431
-0.0031158158 0.044966165 0.0043202927
-0.00082033413 0.046377756 0.004304708
0.00099391432 0.047601771 0.0042888606
0.0025980719 0.048226897 0.0042898124
-0.056522723 -0.0028615918 0.0051719621
-0.055057004 -0.0016441039 0.0051517179
-0.053323299 -0.00017204029 0.0049042851
-0.051344667 0.0015747158 0.0041786972
-0.0014114821 0.042915821 0.0044100778
0.00064055546 0.044620279 0.0043816669
0.0023994127 0.046081264 0.0043573463
0.0044157146 0.047666103 0.00433244
0.0066972268 0.048660923 0.0043303138
-0.059049621 -0.0085255718 0.0053234873
-0.057456706 -0.0071034064 0.0052982355
-0.055473376 -0.0050758119 0.004480103
-0.053713746 -0.0033634889 0.0042252084
-0.051947709 -0.0018965397 0.0042007975
0.0038602604 0.044323828 0.0044343201
0.005912296 0.046028286 0.0044059837
0.0079642944 0.047732782 0.0043775728
0.0096900621 0.048836146 0.0043645063
-0.059111096 -0.011819886 0.0054304013
-0.057754707 -0.010321832 0.0053995606
-0.055995807 -0.0088608824 0.0053752391
-0.053979781 -0.0071493885 0.0050334372
-0.052002441 -0.0054222285 0.0043153558
0.0076166284 0.043977935 0.0044957846
0.0096686212 0.04568243 0.0044674035
0.011427518 0.047143377 0.0044430839
0.012955692 0.048200581 0.0044288542
-0.058852591 -0.015360055 0.0055496385
-0.057809237 -0.013833165 0.0055136355
-0.056050338 -0.012372223 0.0054893149
-0.054357465 -0.01090769 0.0049080662
-0.052351549 -0.0091923755 0.0044339905
-0.050291169 -0.0074809231 0.0044055181
0.013131859 0.045093037 0.0045328392
0.014890715 0.046554025 0.0045085335
-0.057973061 -0.017063985 0.005617098
-0.05634835 -0.015590646 0.0055905944
-0.054642536 -0.014131812 0.0051208967
-0.052945126 -0.012668421 0.0045397738
-0.050884709 -0.010957011 0.0045112716
0.014592705 0.043335598 0.004609813
0.01635161 0.044796553 0.0045854934
0.018077331 0.04589995 0.0045724111
-0.05661327 -0.018451447 0.0056806048
-0.0548875 -0.017348086 0.0056675682
-0.052970447 -0.016064018 0.0050143655
-0.051233813 -0.014727156 0.0046299212
-0.0491734 -0.01301575 0.0046014339
0.017812455 0.04303911 0.0046624523
0.019864459 0.044743616 0.0046341149
0.022159966 0.046155144 0.0046185311
0.023918832 0.047616147 0.0045942115
0.025367985 0.048654832 0.0045795711
-0.051866442 -0.019790156 0.0057877107
-0.051126558 -0.018258831 0.0049970346
-0.049522508 -0.016785895 0.0047200983
-0.047469322 -0.015075223 0.0046081403
0.021568824 0.04269322 0.0047239317
0.023620827 0.044397723 0.0046955347
0.025379684 0.045858718 0.00467123
0.02730914 0.047213819 0.0046526501
-0.054802723 -0.025200097 0.0059254793
-0.052965354 -0.023475857 0.005893589
-0.051478792 -0.021448823 0.0058471542
-0.049786989 -0.020006934 0.0051554525
-0.047897827 -0.018513748 0.0046982141
0.025248434 0.042217441 0.0043336926
0.027084056 0.043808319 0.0047609853
0.029136041 0.045512814 0.0047326488
0.030845253 0.046437386 0.0047251713
-0.055051077 -0.027882105 0.0060098702
-0.054121979 -0.02661521 0.0059808455
-0.052069977 -0.024910711 0.0059525091
-0.050028916 -0.023211041 0.005812916
-0.048354916 -0.02178207 0.0048990725
-0.04631548 -0.020077357 0.0046203462
0.028544907 0.042050887 0.0048379442
0.030596893 0.043755379 0.0048096078
0.032355793 0.045216326 0.0047852434
-0.054618645 -0.031979267 0.006149644
-0.054056797 -0.030162165 0.0060977405
-0.05241764 -0.028665552 0.0060706753
-0.050390646 -0.026975993 0.0057922704
-0.048401199 -0.025303617 0.0050970158
-0.046643607 -0.023840806 0.0049892049
0.032301277 0.041704994 0.0048994236
0.034366388 0.043285329 0.004875252
-0.053644758 -0.033150874 0.0062009497
-0.052472167 -0.032176897 0.0061847512
-0.050747611 -0.030740477 0.005827209
-0.048758753 -0.029077906 0.0051322654
-0.046698339 -0.0273665 0.0051037939
-0.044976812 -0.02592887 0.0045238603
0.034025449 0.039672028 0.0049054706
0.036057599 0.041359141 0.0049607977
0.037498511 0.042308394 0.0049489522
-0.052477002 -0.035151858 0.0062819701
-0.051011283 -0.033934377 0.0062617259
-0.04932934 -0.032535903 0.0054601403
-0.047291916 -0.030842541 0.0052095475
-0.04524029 -0.029138535 0.0050700326
0.037518494 0.039601669 0.0050377576
0.039277352 0.041062657 0.005013437
0.040718224 0.042011954 0.0050016055
-0.05117514 -0.037165139 0.0063651735
-0.049561191 -0.035702255 0.0062276777
-0.047885489 -0.034318577 0.0053153308
-0.04583177 -0.032613833 0.0052035814
0.03875009 0.037651327 0.0048677772
0.040738199 0.039305218 0.0050904108
0.042203929 0.040522713 0.005070121
-0.049604952 -0.039203145 0.0064528203
-0.047876667 -0.03777555 0.0060955854
-0.046174183 -0.036377322 0.0054054782
-0.044161595 -0.03472108 0.0047527915
0.040522859 0.035647582 0.0047068363
0.042442568 0.037254825 0.0051802276
0.044214536 0.038591649 0.0051601306
-0.048193753 -0.041496996 0.0065466668
-0.046170007 -0.039828692 0.0061854953
-0.044462871 -0.038436059 0.0054956404
-0.042455334 -0.036797017 0.0047183782
0.043946307 0.035024852 0.0049396539
0.045905761 0.036665469 0.0052456772
0.047321834 0.037346542 0.0052422751
-0.046732906 -0.043254435 0.0066236258
-0.044724975 -0.041614953 0.0060408413
-0.042719014 -0.039983127 0.0053193383
-0.04070577 -0.0383485 0.0045422958
0.045504548 0.033327475 0.0046823779
0.047366608 0.034908034 0.0053226352
0.048539203 0.035882015 0.0053064069
-0.045272019 -0.045011912 0.0067005996
-0.043277804 -0.043404326 0.0058963131
-0.041256022 -0.041759465 0.0053135836
0.047043085 0.031610928 0.0045088939
0.048827503 0.033150565 0.0053996099
0.050293226 0.034368046 0.0053793201
-0.043567691 -0.047062259 0.0067903996
-0.04158397 -0.045490973 0.0057647619
-0.03955235 -0.043841653 0.0052376315
-0.03751475 -0.04218737 0.0047104247
0.048778862 0.029567633 0.0045154626
0.050607853 0.031144727 0.0052387957
0.052290697 0.032561209 0.0054651042
-0.041879881 -0.049149007 0.0066309171
-0.039872661 -0.047549717 0.0058549391
-0.037851121 -0.045938455 0.0050787507
-0.035796497 -0.044254459 0.0048009334
0.050386988 0.027453804 0.0049395924
0.052236162 0.029049862 0.005579195
0.053995069 0.030510819 0.0055548754
-0.040417545 -0.050908223 0.0067079943
-0.038405869 -0.049314301 0.0059322212
-0.036392469 -0.04774465 0.0049071461
-0.034323718 -0.046026252 0.0048785238
0.049896602 0.024032865 0.0047113933
0.051799819 0.025665106 0.0051837284
0.05369705 0.027292386 0.0056561548
0.055455919 0.028753381 0.0056318343
-0.038701665 -0.052930258 0.0069846595
-0.036694553 -0.051373038 0.0060223537
-0.034851976 -0.04971122 0.0052779
-0.032850929 -0.047798038 0.0049561132
-0.03107767 -0.046325166 0.0049316119
0.051607866 0.021974167 0.0048015406
0.053507619 0.023610584 0.0052737249
0.055401385 0.025242038 0.0057459697
0.056883674 0.026638314 0.0057200613
-0.036993798 -0.054970775 0.0071367305
-0.034968641 -0.053375952 0.0064444505
-0.032992169 -0.0515485 0.0056486558
-0.03113264 -0.049865164 0.0050466675
-0.029359423 -0.048392255 0.0050221505
-0.027911773 -0.047489312 0.0050119134
0.053319186 0.01991543 0.0048917169
0.055215467 0.021556022 0.0053636758
0.05710572 0.023191694 0.0058357408
0.058415435 0.024477629 0.0058111418
-0.035227351 -0.05635066 0.0072053773
-0.033488486 -0.055061433 0.0069640484
-0.031461906 -0.053525649 0.0059124297
-0.029414402 -0.051932253 0.0051371763
-0.027641179 -0.050459344 0.0051126601
-0.02609265 -0.048887834 0.0050819255
0.053019971 0.016683841 0.0049934098
0.054786023 0.018150799 0.004968999
0.056707203 0.01980594 0.0053574303
0.058566611 0.021434216 0.0059126997
0.059739158 0.022408241 0.0058964705
-0.033712704 -0.05752698 0.0072640507
-0.032020066 -0.056781199 0.0072622523
-0.029990014 -0.055262506 0.0061556185
-0.027941618 -0.053704042 0.0052147657
-0.026529046 -0.052197941 0.0051843589
0.054486763 0.014919249 0.0050706919
0.056252852 0.016386168 0.005046281
0.058227886 0.018065551 0.0052678557
0.060027465 0.019676784 0.0059896735
0.061200045 0.020650754 0.0059734453
-0.030753002 -0.05770934 0.0073094973
-0.028357306 -0.056733597 0.0056835301
-0.026468836 -0.055475831 0.005292356
-0.024952058 -0.054415639 0.0052779224
0.056076232 0.012735078 0.0050203623
0.05796412 0.014327468 0.0051364135
0.059893955 0.015994443 0.0054828888
0.061731793 0.017626431 0.0060794884
0.062417421 0.01918624 0.0060375771
-0.026512792 -0.058307856 0.0053843949
-0.024750551 -0.057542965 0.0053828955
-0.022977324 -0.056070048 0.0053583784
0.057573542 0.01061993 0.0049445853
0.059675429 0.01226873 0.0052265907
0.061471175 0.013897971 0.0059477603
0.063078396 0.015609008 0.006163381
-0.022736771 -0.059364554 0.0054693446
-0.021259082 -0.058137141 0.0054488881
-0.019430015 -0.056903116 0.0054329438
-0.017492184 -0.055757027 0.0054213013
0.059376225 0.0090371426 0.0053282846
0.061348077 0.010724002 0.0055495882
0.063138112 0.012357657 0.0062705381
0.063823737 0.013917458 0.0062286565
-0.021263992 -0.061136346 0.005546933
-0.019786296 -0.059908919 0.0055264775
-0.018013075 -0.058436014 0.0055019762
-0.016239846 -0.056963101 0.0054774592
0.059036501 0.0056161238 0.004685197
0.060843062 0.0072725066 0.0054055657
0.062918209 0.0087389331 0.0060523981
0.064565875 0.010242591 0.0063587511
-0.019656282 -0.063368022 0.0066419728
-0.018196331 -0.061884623 0.0058852201
-0.016540287 -0.060207803 0.0055795657
-0.014599738 -0.058695778 0.0055559995
0.060641233 0.0036361723 0.005121544
0.062740676 0.0052588582 0.0056396993
0.064507023 0.0067930231 0.0062888386
0.065960541 0.0077699078 0.0064582014
-0.018467793 -0.065349527 0.0076398775
-0.016422957 -0.063667707 0.006694884
-0.014839549 -0.062190052 0.0060839998
-0.012753248 -0.060556524 0.0056414977
-0.010505789 -0.059854474 0.0056484891
0.060365107 8.1539321e-05 0.0047107367
0.062170014 0.0016049618 0.0053584548
0.064407401 0.0033715244 0.0059976438
0.066248819 0.0050384933 0.0065514036
-0.01661811 -0.066623218 0.007789582
-0.014957215 -0.065385029 0.0077712638
-0.013187713 -0.06396956 0.0075262031
-0.011035001 -0.062623613 0.0057320213
-0.0089662513 -0.060905211 0.0057034139
-0.0072931601 -0.060513876 0.0057129329
0.060189653 -0.0034618475 0.0047473004
0.062139791 -0.0017588995 0.0050511705
0.063966431 -7.6514327e-05 0.0056875823
0.065841034 0.0016047573 0.0061579496
0.067709677 0.0032810722 0.0066283625
0.069955491 0.0041562258 0.0066296803
-0.015155876 -0.067530669 0.007838768
-0.013265946 -0.06731125 0.0078568403
-0.011493978 -0.065974429 0.007836774
-0.0095928097 -0.064438015 0.0070971632
-0.0075931982 -0.062959284 0.0060618157
-0.0057327515 -0.061339293 0.0057607582
-0.0040471549 -0.060812753 0.0057660053
0.057524927 -0.0086704483 0.0048821056
0.059593681 -0.0069520408 0.0048535122
0.061662432 -0.005233638 0.0048248898
0.063520893 -0.0035376973 0.0053779231
0.065433227 -0.001841104 0.0057648644
0.067072608 -0.00020150281 0.0059554782
0.068606861 0.0017330083 0.0064407894
-0.011449163 -0.068412974 0.0079170754
-0.0097772265 -0.067890689 0.0079222927
-0.0080307508 -0.06656383 0.0079022096
-0.0062759956 -0.064717509 0.0068645952
-0.0042474205 -0.062975921 0.0058340775
-0.0030652576 -0.06199399 0.0058177272
0.055904072 -0.013211571 0.0050089983
0.057224482 -0.011915149 0.0049842121
0.058997706 -0.010442237 0.004959695
0.061066464 -0.0087238261 0.0049311025
0.063135214 -0.0070054228 0.0049024951
0.065129124 -0.0056077424 0.0057589067
0.066823564 -0.0037797596 0.0058468105
0.067588501 -0.0020395671 0.0058001122
-0.0070568677 -0.067735441 0.0079535153
-0.0055911415 -0.066517957 0.0079332413
-0.0038566287 -0.064648099 0.0058939811
0.056478284 -0.017027665 0.0051414547
0.057169512 -0.015455146 0.0050992677
0.058942735 -0.013982231 0.0050747516
0.062784694 -0.010790926 0.0050216261
0.064732797 -0.009036636 0.0049902396
0.066257432 -0.0073123109 0.0052877245
0.0012077566 -0.065932475 0.0060035577
0.0032765528 -0.064214118 0.0059749652
0.0052761794 -0.062652953 0.0059505692
0.0070684617 -0.061563589 0.0059388513
0.057249792 -0.019007606 0.005216511
0.058887757 -0.017522233 0.0051897755
0.060660981 -0.016049325 0.0051652594
0.062434204 -0.014576413 0.0051407432
0.064502992 -0.012858046 0.0051121507
0.065850407 -0.011073221 0.0050717322
1.3691392e-05 -0.070279904 0.0081310468
0.0010651136 -0.068939552 0.0076565025
0.0025871012 -0.06751743 0.0069076177
0.0047039362 -0.06590376 0.0064244876
0.0065726223 -0.063972197 0.006010998
0.0083458461 -0.062499285 0.0059864819
0.01029545 -0.061478961 0.0059791254
0.057305019 -0.022830442 0.0053422675
0.058291785 -0.021012422 0.0052959882
0.060360536 -0.019294022 0.0052673658
0.062133756 -0.017821113 0.0052428497
0.063906983 -0.0163482 0.0052183336
0.065570004 -0.014592448 0.0051831147
0.00074413419 -0.071158648 0.0081695262
0.0024036865 -0.070770487 0.0081789959
0.0042020157 -0.069385499 0.0078241341
0.0063306405 -0.067809872 0.0072172564
0.0081897127 -0.065876521 0.0068453131
0.010004636 -0.064477697 0.0064902389
0.011591895 -0.062798209 0.0060395701
0.013539885 -0.061401986 0.0060198857
0.015629267 -0.060442977 0.0060164053
0.054935832 -0.027793547 0.0054729665
0.056335345 -0.026231674 0.0054405574
0.05769581 -0.024502618 0.0054021562
0.059764571 -0.022784218 0.0053735785
0.061833318 -0.021065807 0.0053449562
0.063471332 -0.019580474 0.0053182514
0.064863823 -0.017799808 0.0052785669
0.0039638877 -0.071455128 0.0082221804
0.0056358171 -0.070932843 0.0082273977
0.0074774236 -0.06949535 0.0080048209
0.0096479962 -0.068030387 0.007549243
0.011634334 -0.066415243 0.0071590338
0.013206694 -0.064723402 0.0067911362
0.015358488 -0.063120663 0.0062254649
0.017447649 -0.06142848 0.0060729096
0.019453829 -0.060386077 0.006065567
0.021139422 -0.059859537 0.0060708299
0.052696876 -0.033314012 0.0056236284
0.05409015 -0.031260725 0.0055750944
0.055867579 -0.029515486 0.0055417279
0.057640839 -0.028042613 0.0055172117
0.059508212 -0.026553627 0.0056473576
0.061492834 -0.02474314 0.0054606926
0.063229322 -0.023012353 0.0054272413
0.063997343 -0.021265071 0.0053803427
0.0086682467 -0.070914544 0.0082672546
0.011148554 -0.069844551 0.0082654161
0.013229208 -0.068302989 0.0079925507
0.014947065 -0.066909976 0.0074923085
0.016927591 -0.065001473 0.0071834028
0.019066671 -0.06338039 0.0067142071
0.020939158 -0.062022705 0.0061389012
0.022699876 -0.060684994 0.0061186561
0.024934998 -0.059274066 0.0061023189
0.02726268 -0.057369165 0.0060710693
0.028799489 -0.056092657 0.0060498137
0.030296199 -0.055248737 0.0060421871
0.046846353 -0.04150163 0.0058133714
0.048240289 -0.039915863 0.0057801167
0.050147332 -0.038260501 0.0057514189
0.051810354 -0.036504757 0.0057161869
0.053448316 -0.035019383 0.0056894524
0.055517111 -0.033301018 0.0056608589
0.057585862 -0.031582613 0.0056322357
0.05920675 -0.030077843 0.0060493685
0.06107882 -0.028327895 0.0065729963
0.063293323 -0.026895229 0.0068058744
0.064678527 -0.025988752 0.00694481
0.013235442 -0.070685878 0.0083206985
0.014839635 -0.070060804 0.0083216662
0.016631875 -0.068693131 0.0082007982
0.018572135 -0.066976093 0.0076451879
0.020699311 -0.065348811 0.0072450787
0.02249705 -0.06391573 0.0070554288
0.024346907 -0.062531464 0.0066179195
0.026280023 -0.06081342 0.0063135615
0.02832271 -0.058884811 0.0061347745
0.030095931 -0.057411902 0.0061102584
0.031869154 -0.055938985 0.0060857413
0.03406819 -0.054777991 0.0060771257
0.03649763 -0.053092819 0.0060543949
0.038295865 -0.051349487 0.0060213804
0.039798614 -0.049851697 0.0059924573
0.041867368 -0.048133288 0.0059638498
0.043936159 -0.046414927 0.0059352573
0.045709383 -0.044942018 0.0059107412
0.047372367 -0.043186221 0.0058754934
0.049305897 -0.041455399 0.0058446825
0.051374655 -0.039736994 0.005816075
0.053321842 -0.038414747 0.0059807608
