# .PCD v0.7 - Point Cloud Data file format
VERSION 0.7
FIELDS x y z
SIZE 4 4 4
TYPE F F F
COUNT 1 1 1
WIDTH 1277
HEIGHT 1
VIEWPOINT 0 0 0 1 0 0 0
POINTS 1277
DATA ascii
-0.071822628 0.054325543 0.0090426588
-0.071866669 0.056497153 0.0096974652
-0.071406133 0.058243871 0.0097895227
-0.073880702 -0.065362372 0.011402938
-0.074801125 -0.063399069 0.011344003
-0.074785858 -0.060871676 0.011309819
-0.074666753 -0.0582816 0.011278328
-0.070303909 0.051993817 0.0089129712
-0.069600336 0.054344762 0.0089050606
-0.069517575 0.056764401 0.0091475751
-0.069330081 0.059085347 0.0096623637
-0.068546601 0.061327022 0.0098463222
-0.072133794 -0.067666695 0.011495226
-0.072418489 -0.065799788 0.011459673
-0.072019607 -0.063440531 0.011190911
-0.071963117 -0.060950432 0.011208682
-0.067549549 0.056857705 0.0089416662
-0.066787951 0.05906206 0.0090211695
-0.066274688 0.061355904 0.0094577838
-0.066179171 0.063783735 0.0098946923
-0.069060773 -0.073368542 0.011680257
-0.06913504 -0.070955046 0.011644484
-0.069871545 -0.068437219 0.011584345
-0.069829777 -0.065917775 0.011551133
-0.069754064 -0.063533343 0.010597249
-0.070106938 -0.061021626 0.010473506
-0.064745776 0.059559729 0.0090018073
-0.064069331 0.061680224 0.0089961253
-0.063965544 0.064111352 0.009591775
-0.06363818 0.06647411 0.0099458862
-0.062826984 0.068580955 0.0099450555
-0.067515261 -0.075218752 0.011759302
-0.067581512 -0.073435962 0.011732479
-0.067479387 -0.071215898 0.011705501
-0.067360215 -0.068625823 0.011674055
-0.067241058 -0.066035762 0.011642549
-0.067654707 -0.064286567 0.011604187
-0.06238085 0.062430695 0.0090444004
-0.061805915 0.064142101 0.009040812
-0.061443765 0.066268608 0.0092970645
-0.061006196 0.068539739 0.0099087385
-0.060707755 0.070610203 0.0099906754
-0.065409891 -0.076029308 0.011843488
-0.065362602 -0.073537096 0.011810849
-0.065042421 -0.071289249 0.011609107
-0.064883031 -0.068796098 0.011387089
-0.064801067 -0.066218518 0.011229401
-0.064141735 -0.064830758 0.010732833
-0.059475113 0.066269942 0.009092438
-0.058730479 0.068567514 0.0091492115
-0.058558531 0.071116716 0.0098439017
-0.058117487 0.07321126 0.010044817
-0.063012227 -0.078835212 0.011965277
-0.062893055 -0.076245137 0.011933816
-0.062918924 -0.073735081 0.011398043
-0.062814735 -0.07174024 0.010985075
-0.063077375 -0.069198459 0.010829806
-0.063096002 -0.066367798 0.010790246
-0.063010514 -0.064509973 0.010767679
-0.056367457 0.069107063 0.0091612618
-0.05625689 0.071288534 0.0093852803
-0.055996403 0.073554955 0.0097562792
-0.055292051 0.075554401 0.010110614
-0.060423505 -0.078953192 0.012056677
-0.060374342 -0.076405317 0.011773232
-0.060564052 -0.074023157 0.010983354
-0.061141275 -0.072414391 0.0109412
-0.054526098 0.071381338 0.0091938805
-0.053786486 0.073302425 0.0091931447
-0.053472374 0.075611293 0.0095892176
-0.052971032 0.077673331 0.010162022
-0.058323778 -0.081644394 0.012166569
-0.057969432 -0.079162568 0.011644389
-0.057986971 -0.076653928 0.011108906
-0.058756649 -0.074508905 0.011052735
-0.05107744 0.075851873 0.0092520537
-0.050768632 0.078133471 0.0099242106
-0.055927411 -0.081774913 0.011784509
-0.05550709 -0.07937336 0.011232359
-0.055663522 -0.077380396 0.011199533
-0.048834354 0.076458856 0.0093215546
-0.048581652 0.07846304 0.0095756873
-0.047766261 0.080447868 0.0098597454
-0.053368129 -0.083726212 0.011366434
-0.053478513 -0.081792966 0.011336023
-0.053796817 -0.07994777 0.011299597
-0.046214554 0.082172856 0.0093339095
-0.048162609 -0.086906746 0.011590756
-0.048318993 -0.084913775 0.01155793
-0.045821987 -0.087261647 0.011676838
-0.046259835 -0.085454442 0.011636807
-0.043169551 -0.08946766 0.011799205
-0.043982223 -0.087717839 0.011746947
-0.029801071 0.087246582 0.010834364
-0.029715944 0.089096628 0.01081187
-0.027829485 0.085430741 0.0099270148
-0.027937902 0.087239221 0.010327309
-0.027832819 0.089752369 0.010868214
-0.027377935 0.091585569 0.01085878
-0.025587291 0.087655693 0.0099742403
-0.025277914 0.089764521 0.010706499
-0.025141984 0.091854461 0.010932637
-0.031240715 -0.093883693 0.012273814
-0.023094598 0.088044755 0.010055376
-0.022732636 0.089842945 0.010418464
-0.022536278 0.092106484 0.011019614
-0.020196956 0.089551002 0.010135207
-0.019992806 0.091750711 0.010862568
-0.019879488 0.093468554 0.011093078
-0.017736994 0.089864433 0.010216258
-0.017514156 0.091748126 0.010598349
-0.01753062 0.093891203 0.011168732
-0.01533502 0.090074115 0.010296707
-0.015040386 0.091789164 0.010533508
-0.014964522 0.093913049 0.01118052
-0.014406562 0.095629238 0.011253241
-0.012763374 0.091659062 0.010364152
-0.012493062 0.093680643 0.011012854
-0.012330008 0.096461549 0.011313866
-0.012227887 0.098681621 0.011286858
-0.010292228 0.091830134 0.01044753
-0.010081125 0.093592286 0.010859516
-0.01012816 0.095990412 0.01139672
-0.0074336738 0.091948077 0.010545097
-0.0075335223 0.093727246 0.010874584
-0.007448866 0.095982395 0.011489813
-0.0055768518 0.091863453 0.010610675
-0.0051075104 0.093568213 0.010853719
-0.004933734 0.096124463 0.011575127
-0.0041089738 0.09794081 0.011578767
-0.0025106918 0.093449846 0.010945418
-0.0023450148 0.096006475 0.011666587
-0.0022258493 0.09859658 0.011635096
8.6187727e-05 0.093331479 0.011037177
0.00024369554 0.095888495 0.011758017
0.00036286979 0.098478578 0.011726512
0.0023120604 0.093230039 0.011115764
0.0024626006 0.095787399 0.011836388
0.0025817687 0.098377451 0.011804897
0.0049069338 0.093247361 0.010955377
0.0050513167 0.095669404 0.011927849
0.0075236107 0.093500465 0.01104273
0.0076407772 0.095687747 0.01176727
0.009751806 0.093398899 0.011121424
0.0098637892 0.095677875 0.01167772
0.012447762 0.093063273 0.011219548
0.012451646 0.095434412 0.012000199
0.014933924 0.09279038 0.011309589
0.017533477 0.092671901 0.011401398
0.020790339 0.090661757 0.011542065
0.020133035 0.092553429 0.011493238
0.022275796 0.090594068 0.011594527
0.022350153 0.092362009 0.011739603
0.024875358 0.090475589 0.011686352
0.02495175 0.092266046 0.011789463
0.027652068 0.090162873 0.011787008
0.027560402 0.092214927 0.011755595
0.029686047 0.089883998 0.011861402
0.029788656 0.092113383 0.011834304
0.032285661 0.089765519 0.011953256
0.032388218 0.091994904 0.011926113
0.034513857 0.08966396 0.01203195
0.034556031 0.091736525 0.012004924
0.036456175 0.091437168 0.012074961
0.040417239 0.086937457 0.012274249
0.040421586 0.088650048 0.012250862
0.042495977 0.0852044 0.012370203
0.042192977 0.086707585 0.012339022
0.042126443 0.08849787 0.012312107
0.044845361 0.084501572 0.01246139
0.044792544 0.086589091 0.012430832
0.04755836 0.081994928 0.012589982
0.047272485 0.083869681 0.01255427
0.047375035 0.086099066 0.012527187
0.049398135 0.081538729 0.012660077
0.049500678 0.083768107 0.012632979
0.051840968 0.081480592 0.012745658
-0.088967249 -0.0051336023 0.0080500711
-0.088847138 -0.0025217624 0.0080183335
-0.088744149 -0.00028304473 0.0079911295
-0.088641167 0.0019556833 0.0079639265
-0.086876459 -0.0246718 0.0083912238
-0.086968519 -0.022611143 0.0083597014
-0.087043405 -0.020177362 0.0083236452
-0.087296195 -0.017548529 0.008278735
-0.087193154 -0.015309811 0.0082515329
-0.087445959 -0.012680978 0.0082066227
-0.087325834 -0.010069133 0.0081748851
-0.087222792 -0.0078304149 0.008147683
-0.087102674 -0.0052185771 0.0081159454
-0.086982496 -0.0026067372 0.0080842078
-0.086879522 -0.00036802675 0.0080570048
-0.086807542 0.0022637558 0.0078982217
-0.08673542 0.0048974832 0.0077394363
-0.086568281 0.007108836 0.0078816274
-0.086344883 0.0096281916 0.0079381214
-0.085922971 0.012301058 0.007916024
-0.085819989 0.014539777 0.00788882
-0.08545693 0.01701591 0.0078673661
-0.085138999 0.019593813 0.0078429691
-0.084730826 0.021968175 0.0078244871
-0.084702127 -0.034130711 0.007596001
-0.085045747 -0.032396112 0.0081320461
-0.085168622 -0.030464968 0.0083871819
-0.085522108 -0.027724741 0.0084801828
-0.085123569 -0.02511931 0.0082080327
-0.085020505 -0.022878256 0.0081807952
-0.084995285 -0.020248018 0.0078953505
-0.084970616 -0.017612303 0.0076097706
-0.084867343 -0.015366589 0.0075824806
-0.084818982 -0.012728656 0.0073602982
-0.084722407 -0.010100343 0.0072649615
-0.084618993 -0.0078522982 0.0072376379
-0.084498368 -0.0052295737 0.0072057922
-0.084377691 -0.0026068576 0.0071739024
-0.08427427 -0.00035880753 0.0071465783
-0.084153593 0.0022639139 0.0071147331
-0.084032975 0.0048866333 0.0070828423
-0.083929554 0.0071346872 0.007055534
-0.083808877 0.0097573977 0.0070236735
-0.08365652 0.012363348 0.0070764991
-0.083489843 0.014576278 0.0072186389
-0.083251908 0.017127777 0.007504554
-0.083141252 0.019622618 0.0077299369
-0.083221972 0.022273319 0.0078726402
-0.083012894 0.024787622 0.0078453366
-0.082625896 0.027106872 0.0078268722
-0.082132868 0.029701721 0.0078083063
-0.082593173 -0.037230507 0.0077117975
-0.083076075 -0.035039175 0.007664918
-0.08313527 -0.032700282 0.0076307082
-0.083232157 -0.030375727 0.0077773198
-0.083191007 -0.027820319 0.0078118755
-0.082790546 -0.025206789 0.0075396486
-0.082687132 -0.022958746 0.0075123399
-0.082566448 -0.020336021 0.0074804798
-0.082486652 -0.017704843 0.0073358528
-0.082464747 -0.015437805 0.007083083
-0.082416952 -0.013036421 0.0070850886
-0.082312956 -0.010420758 0.0066251461
-0.082242444 -0.0078960843 0.0066535445
-0.082179993 -0.0056277988 0.0065133548
-0.082141384 -0.0029671944 0.0062557226
-0.081491113 0.0095275659 0.0065068118
-0.081209332 0.012091354 0.0065359427
-0.081003651 0.014531324 0.006944133
-0.080842793 0.017131427 0.0070251971
-0.08083155 0.019812701 0.0070887776
-0.080958791 0.022152269 0.0073095672
-0.080574989 0.024672175 0.007431156
-0.080478117 0.027069787 0.0076517356
-0.08064115 0.029633731 0.007860994
-0.080520973 0.032245573 0.0078292573
-0.079977356 0.034314651 0.0078196768
-0.079586312 0.036315899 0.0078057284
-0.08101292 -0.037838899 0.0077749728
-0.081009105 -0.035425402 0.0077419528
-0.080603451 -0.032817177 0.0074699987
-0.080499895 -0.0305668 0.0074426564
-0.080506459 -0.028096179 0.0073727095
-0.080302581 -0.025519246 0.0069869738
-0.080335177 -0.023040082 0.0068445448
-0.080322646 -0.020769928 0.0065635648
-0.080201514 -0.018136326 0.0065315515
-0.080080323 -0.015502719 0.0064995685
-0.078251235 0.024522509 0.0070135072
-0.07813061 0.027145237 0.0069816168
-0.078372478 0.02944635 0.0072495192
-0.078060135 0.031992078 0.0073177167
-0.077894606 0.034437872 0.0076400787
-0.077687413 0.036977153 0.0078625344
-0.077105366 0.039474465 0.0078483885
-0.076650701 0.041641068 0.0078343889
-0.076276854 0.04326921 0.0078249741
-0.077942222 -0.042745456 0.0069482662
-0.078508027 -0.040273815 0.0073394505
-0.07868398 -0.038173515 0.0073600537
-0.07860744 -0.035545055 0.007201476
-0.078244299 -0.032929227 0.0068028718
-0.078140445 -0.030671844 0.0067754425
-0.078036591 -0.028414473 0.0067480132
-0.077915415 -0.025780872 0.006715985
-0.077794284 -0.023147263 0.0066840015
-0.07769043 -0.020889886 0.0066565722
-0.075285211 0.031896543 0.0070150597
-0.075164527 0.034519251 0.0069831703
-0.075089261 0.03683975 0.0071078278
-0.074702598 0.039315838 0.0074002561
-0.074741483 0.041659083 0.0078003155
-0.074670523 0.044215731 0.007867693
-0.073884808 0.046525307 0.0078632012
-0.076356791 -0.045726139 0.0070442939
-0.076455452 -0.043190237 0.0070059737
-0.07633426 -0.040556632 0.0069740051
-0.076230414 -0.038299255 0.0069465758
-0.07610929 -0.035665654 0.0069145476
-0.075988106 -0.033032048 0.0068825642
-0.07588426 -0.030774673 0.0068551349
-0.075780407 -0.0285173 0.0068277055
-0.075732365 -0.025983188 0.0067945244
-0.075914167 -0.023232952 0.0067504239
-0.072319128 0.039270561 0.0070165833
-0.072406881 0.041915208 0.007159099
-0.072309829 0.044240095 0.0076157073
-0.072266072 0.04670798 0.0078167953
-0.072035804 0.048809089 0.0078959605
-0.071458429 0.050527647 0.0078923749
-0.074389622 -0.047431581 0.0071359561
-0.073944375 -0.045943804 0.0071309493
-0.073823191 -0.043310199 0.0070989365
-0.07370206 -0.040676594 0.0070669525
-0.073598213 -0.038419221 0.0070395232
-0.073643148 -0.035885762 0.0070031388
-0.074304663 -0.033297282 0.0069446145
-0.074397482 -0.031219453 0.006912827
-0.069732338 0.041543085 0.0068248911
-0.069848187 0.044038929 0.007036739
-0.06993749 0.046658795 0.0072645014
-0.069688715 0.048979182 0.007891655
-0.069387414 0.051448144 0.0079515688
-0.068608612 0.053987242 0.0079436908
-0.068234757 0.055615366 0.007934276
-0.071312174 -0.046063766 0.0072239712
-0.071190991 -0.043430164 0.0071919281
-0.071445867 -0.040779427 0.0071466751
-0.07171803 -0.03850491 0.0071059316
-0.06710621 0.046542171 0.0070975064
-0.066959627 0.049135394 0.0071503008
-0.06682466 0.051450733 0.0075401366
-0.066516161 0.053862929 0.0077100908
-0.066619813 0.056196086 0.0079823295
-0.066131398 0.058012191 0.0079743108
-0.064388759 0.048863895 0.0068869311
-0.064260751 0.051293481 0.0071308757
-0.064228207 0.053979047 0.0071720732
-0.064244866 0.056364749 0.0075620608
-0.064287953 0.058698636 0.0080288379
-0.06375654 0.060895164 0.0080170706
-0.06600792 -0.056359317 0.007549515
-0.061851077 0.05104436 0.0065299268
-0.061652966 0.053798836 0.0069868099
-0.061772611 0.05643652 0.0071465094
-0.061970044 0.058821168 0.0075738654
-0.061582908 0.061238836 0.0079338029
-0.061055616 0.063420549 0.0080760736
-0.060330033 0.064976566 0.0080798483
-0.063801043 -0.062994882 0.0077173305
-0.064385556 -0.06136591 0.0076746638
-0.064380057 -0.059198312 0.0076450557
-0.059389975 0.05611835 0.0065407502
-0.059066422 0.058511943 0.0067829629
-0.058909882 0.061162487 0.0072434349
-0.058712218 0.063447498 0.0078840833
-0.058634434 0.065730184 0.0081283189
-0.061648641 -0.070914157 0.0099022733
-0.062063038 -0.068834953 0.0096369274
-0.062023915 -0.06639082 0.0090992982
-0.06226939 -0.063902013 0.0082833068
-0.062227707 -0.061558504 0.0077521773
-0.062141199 -0.059677362 0.0077293171
-0.056706447 0.058458582 0.0062937797
-0.056436479 0.061267063 0.0067648953
-0.056304768 0.063731395 0.0073360046
-0.056224972 0.065987371 0.0080207568
-0.055773761 0.068341769 0.0081916749
-0.054851625 0.070335425 0.0081962626
-0.059595525 -0.073400699 0.010007702
-0.0599516 -0.071554892 0.0097198002
-0.059838895 -0.06902802 0.008665516
-0.05988048 -0.066632375 0.0079700612
-0.060169365 -0.063914433 0.007855989
-0.059821106 -0.061668191 0.007837181
-0.060654372 -0.060122143 0.0077870097
-0.053953055 0.060972225 0.0063547436
-0.053775825 0.063314848 0.0068624085
-0.053877488 0.065947391 0.0073897541
-0.053458482 0.068243854 0.0080004642
-0.053342775 0.070640564 0.0082444167
-0.052920137 0.072864689 0.0082285115
-0.057502635 -0.073903605 0.0098870825
-0.057638075 -0.071621537 0.009050454
-0.057436146 -0.069377087 0.0081259981
-0.057730019 -0.06754443 0.0079905028
-0.057784565 -0.063269079 0.0079298541
-0.051320855 0.060852256 0.006447765
-0.051365118 0.06331747 0.0065942658
-0.051167369 0.065586992 0.0071742521
-0.051172465 0.068051055 0.0074316133
-0.050851319 0.070335679 0.0079061706
-0.050985053 0.073150411 0.008291726
-0.050526351 0.07499902 0.0082822284
-0.054224856 -0.078506202 0.010264236
-0.054960102 -0.076436996 0.010210264
-0.055151831 -0.07410834 0.0098380549
-0.055042826 -0.071615465 0.0085844602
-0.055224434 -0.069870472 0.0081094289
-0.048960816 0.063006811 0.0065000285
-0.048820265 0.065605246 0.0065525295
-0.048564717 0.067987852 0.0071123978
-0.04846134 0.070526123 0.0074916598
-0.048431434 0.073143527 0.0081302496
-0.048155896 0.075570799 0.0083566159
-0.047337886 0.077695355 0.0083557842
-0.046912573 0.080442846 0.0083327675
-0.052244794 -0.084204964 0.010411277
-0.052319672 -0.081771195 0.01037522
-0.052694976 -0.079221755 0.010327143
-0.052674506 -0.076727398 0.010182391
-0.052692469 -0.074200422 0.0091035394
-0.05268221 -0.071946822 0.008226186
-0.053583726 -0.07024686 0.0081715267
-0.046207484 0.065520458 0.0065609626
-0.046086296 0.068154052 0.0065289643
-0.045911532 0.070451923 0.0071038795
-0.046000689 0.072988875 0.0074661821
-0.045751881 0.075341836 0.0080262255
-0.045541033 0.077763014 0.0084172068
-0.045420855 0.080374882 0.0083854701
-0.044944957 0.082596585 0.0083714388
-0.050448809 -0.085782431 0.010495272
-0.050753076 -0.084272951 0.010463965
-0.050650097 -0.082034245 0.010436762
-0.05036201 -0.079364128 0.010195613
-0.050253786 -0.076985739 0.0094638057
-0.050206561 -0.07454183 0.0088147577
-0.05067936 -0.072641328 0.0083052181
-0.043575279 0.065400489 0.0066539543
-0.043454096 0.068034105 0.0066219708
-0.04347242 0.07040453 0.0066888221
-0.043400683 0.072744161 0.0071594743
-0.043275915 0.075117469 0.0075314865
-0.043121912 0.077417314 0.0080389045
-0.043183316 0.080272913 0.0084645022
-0.042974237 0.082787193 0.0084371837
-0.047891408 -0.083805144 0.010556824
-0.047955468 -0.081971847 0.010386439
-0.048024423 -0.079619013 0.0097441431
-0.047752727 -0.077195875 0.009025326
-0.047873266 -0.075125583 0.008436745
-0.041197903 0.067931265 0.0067016785
-0.041094054 0.070188649 0.0066742492
-0.040956207 0.072784595 0.0067266906
-0.040676147 0.075048506 0.0075114029
-0.040629581 0.077675976 0.0076650921
-0.0407026 0.080210358 0.0082846014
-0.04043128 0.082657583 0.0083604334
-0.044854984 -0.086037375 0.010692867
-0.045434661 -0.084421866 0.010650547
-0.045556884 -0.082027093 0.0099462578
-0.045241285 -0.079578474 0.0090896627
-0.045352332 -0.077476881 0.0085565364
-0.045929428 -0.075873956 0.0085144704
-0.039386027 0.067999505 0.006763584
-0.038684037 0.070154212 0.0067583174
-0.038340665 0.072702281 0.0067351833
-0.038172077 0.075220987 0.006956608
-0.038189776 0.077462234 0.0075987233
-0.038166407 0.08014103 0.007639688
-0.038062993 0.082389072 0.0076123644
-0.037798215 0.084066585 0.0075984965
-0.043258753 -0.087082252 0.010762621
-0.043094821 -0.084631257 0.010370726
-0.043033931 -0.082236238 0.0095780194
-0.042718228 -0.079790488 0.0086797522
-0.042828385 -0.078088887 0.0086525185
-0.036135495 0.073129602 0.0068058493
-0.035587333 0.075215921 0.0067961914
-0.035680536 0.077718794 0.0072255326
-0.035545107 0.08002156 0.0077323006
-0.035441693 0.082269602 0.0077049769
-0.035355479 0.084142976 0.0076821898
-0.040924508 -0.089955524 0.010883112
-0.040804327 -0.087343693 0.010851375
-0.04062077 -0.084981054 0.010024696
-0.040501185 -0.08244428 0.0092101051
-0.04072427 -0.080132708 0.0087536387
-0.033428706 0.075332984 0.00686948
-0.033227291 0.077370457 0.0068484703
-0.033009637 0.079724588 0.0074073724
-0.032820329 0.082150139 0.0077975602
-0.032734122 0.084023528 0.007774788
-0.038314041 -0.090074494 0.010975316
-0.038271781 -0.08755172 0.010525169
-0.038125828 -0.085009322 0.0098114358
-0.037939098 -0.082634382 0.0089471731
-0.038616523 -0.080731459 0.0088349907
-0.030926555 0.075506195 0.0069539179
-0.030595088 0.077250525 0.0069414172
-0.030434826 0.079764083 0.0071625821
-0.030573491 0.082047731 0.0078769289
-0.030372921 0.084076822 0.0078559751
-0.036179483 -0.092415191 0.011081566
-0.03593773 -0.090056278 0.010957442
-0.035783868 -0.087661877 0.010296095
-0.035635412 -0.0853616 0.0094569484
-0.035598323 -0.083382472 0.0089761605
-0.028202064 0.077392794 0.0070225215
-0.027841698 0.079764143 0.0070023811
-0.027987383 0.082049377 0.0077164797
-0.027838884 0.084390432 0.0079396283
-0.027370837 0.086407311 0.0079281079
-0.03340051 -0.094286717 0.011203714
-0.033569023 -0.09253417 0.01117377
-0.033421885 -0.090059981 0.010878027
-0.033158194 -0.087591529 0.0098969825
-0.033183746 -0.085503273 0.009089103
-0.033866595 -0.08396408 0.0090442272
-0.026424164 0.077814467 0.0070783943
-0.025649196 0.079767071 0.0070784353
-0.025449194 0.082240552 0.0071625682
-0.025323305 0.084798165 0.0083156172
-0.025069762 0.086800762 0.0090032481
-0.030281393 -0.094179615 0.011310467
-0.030958561 -0.092653133 0.011265988
-0.030929705 -0.090172812 0.010649125
-0.030961439 -0.087766007 0.0096420674
-0.030944893 -0.08598233 0.0091733644
-0.02344171 0.080393068 0.0071464269
-0.023208188 0.082192101 0.0071298126
-0.022983702 0.084411114 0.0079410011
-0.022733044 0.086943574 0.0088321883
-0.028841192 -0.09536694 0.011376757
-0.028485708 -0.09276437 0.011080394
-0.028373552 -0.090388097 0.010323853
-0.028386677 -0.087965071 0.0093727503
-0.028706038 -0.08646138 0.0092576109
-0.021397302 0.080601498 0.0072144964
-0.020575987 0.082072154 0.0072227595
-0.020383926 0.084394321 0.0078229662
-0.02031241 0.086851783 0.0086672688
-0.020378843 0.088581122 0.0091415308
-0.026387641 -0.095427945 0.011033868
-0.026012527 -0.093174689 0.010544144
-0.025786618 -0.090564176 0.010165863
-0.025766997 -0.088103406 0.009382179
-0.01804135 0.082172081 0.0073093623
-0.017788444 0.084419295 0.0076207831
-0.01775476 0.087021455 0.0086107226
-0.017621217 0.088953972 0.009232075
-0.023651997 -0.095666505 0.011310756
-0.023612579 -0.093206212 0.01063895
-0.02355816 -0.09070465 0.010078307
-0.023528142 -0.088582464 0.0094664553
-0.015849648 0.082422271 0.0073819486
-0.015642464 0.084210657 0.0074646301
-0.01531406 0.086425774 0.0081642345
-0.015163778 0.088844366 0.0090686865
-0.014309114 0.090547912 0.0093250936
-0.021172568 -0.095653735 0.010877021
-0.021005275 -0.09335272 0.010620261
-0.020942118 -0.090843342 0.010087606
-0.021468628 -0.088864818 0.0095417751
-0.01302077 0.082481846 0.007479283
-0.01295154 0.083986759 0.007460977
-0.012774241 0.086272582 0.008123707
-0.012656581 0.088834397 0.0088056028
-0.012654501 0.09077163 0.0093794232
-0.018388746 -0.095797382 0.011044853
-0.018312342 -0.093349226 0.01061356
-0.018496756 -0.091025919 0.0098747611
-0.010764581 0.082379036 0.0075589758
-0.01031934 0.08386682 0.0075539839
-0.01016861 0.086289175 0.0079428507
-0.01007908 0.088925816 0.0088013709
-0.010030313 0.090951152 0.0094680116
-0.016185787 -0.096006766 0.011574491
-0.016143641 -0.093258761 0.010537455
-0.016111394 -0.091182582 0.0097595314
-0.0083023245 0.08402621 0.007621774
-0.0080211814 0.086124487 0.0077027511
-0.0077154064 0.088333912 0.0084016491
-0.0075944448 0.090745136 0.0093051847
-0.013736282 -0.096038811 0.011552702
-0.013519604 -0.093378328 0.010630162
-0.013318372 -0.091083661 0.0098550748
-0.0053270925 0.085901394 0.0076992093
-0.0051776594 0.088245578 0.0082350681
-0.0051082163 0.090700082 0.0093086828
-0.011264936 -0.096206926 0.011179378
-0.010895562 -0.093497925 0.010722869
-0.010946957 -0.091256373 0.0099397404
-0.002694885 0.08578144 0.0077922163
-0.0025542709 0.088157766 0.0082647614
-0.0025969902 0.091059551 0.0093908506
-0.00875099 -0.096163973 0.011084087
-0.00865681 -0.093640432 0.010635707
-0.0087446887 -0.091593727 0.010020772
-0.00043869973 0.085678607 0.0078719091
-0.00030278176 0.088055111 0.0083442992
-0.00011543491 0.090856433 0.0094130598
-0.0061296886 -0.096283436 0.0111767
-0.0060453597 -0.093825802 0.0104578
-0.0059758737 -0.092021525 0.010122725
0.0022108434 0.08593487 0.0079603167
0.0023239974 0.087935433 0.0084370719
0.0022946156 0.090651281 0.0094288448
-0.0035083306 -0.096402906 0.011269268
-0.0034194889 -0.093960844 0.010488249
0.0048430441 0.085814908 0.0080532944
0.0049507809 0.087815717 0.0085298447
0.0048717777 0.090719171 0.0096546803
-0.0012614831 -0.096505299 0.011348637
-0.0011715181 -0.094104812 0.010401456
0.0070992396 0.085712083 0.0081329867
0.0072022667 0.087713107 0.0086093675
0.0073554758 0.090515956 0.0096769491
0.0074577034 0.092547119 0.01005284
0.0013598744 -0.096624777 0.01144125
0.0014638392 -0.0941834 0.010660747
0.0015447267 -0.092364289 0.010388372
0.0097314417 0.085592121 0.0082259644
0.0098316865 0.087689117 0.0085132932
0.0099702906 0.090396777 0.0097692898
0.010068164 0.09242814 0.010145059
0.0039811735 -0.096744224 0.011533833
0.0040933038 -0.09430325 0.010753629
0.0041769296 -0.092484251 0.010481348
0.012363642 0.085472159 0.0083189411
0.01246163 0.087601185 0.0085432278
0.012585096 0.09027762 0.0098616751
0.011932797 0.092343166 0.010210919
0.0062280726 -0.09684664 0.011613188
0.006347165 -0.094405971 0.010833245
0.0064331214 -0.092587076 0.010561042
0.014619837 0.085369319 0.0083986484
0.014715494 0.087498471 0.0086228587
0.014826336 0.09017548 0.0099408533
0.0088493731 -0.096966095 0.011705801
0.0089747235 -0.094479606 0.011113063
0.0090653235 -0.09270703 0.010654033
0.017252039 0.085249364 0.008491626
0.017341975 0.087346829 0.0087785944
0.017441142 0.090056278 0.010033224
0.011470735 -0.09708558 0.011798384
0.011599349 -0.094563611 0.0113512
0.011714867 -0.09245076 0.010742456
0.01988424 0.085129395 0.0085846027
0.019956112 0.087089486 0.0091438703
0.019991277 0.089773707 0.010239929
0.013717574 -0.097187974 0.011877753
0.013845516 -0.094625495 0.011596812
0.013971059 -0.092553586 0.010822149
0.022123093 0.084650345 0.0086688641
0.022196567 0.086902723 0.00939098
0.022270454 0.089384042 0.010360111
0.016469559 -0.094745092 0.011689475
0.016719943 -0.092370398 0.010915002
0.025062138 0.083008334 0.0087933876
0.024841374 0.084603608 0.0088407667
0.024819314 0.086907014 0.0096070012
0.024808446 0.089317292 0.010499135
0.019000482 -0.095049769 0.011931565
0.01929898 -0.092650019 0.011190253
0.019698046 -0.090929523 0.010998513
0.02745487 0.08259768 0.00888207
0.027383568 0.084661372 0.0091013983
0.027436431 0.087159239 0.010069581
0.027395012 0.089301579 0.01078923
0.021310551 -0.095281258 0.012114994
0.021471303 -0.092815757 0.011419531
0.021742448 -0.090721071 0.011066582
0.029557185 0.082426444 0.008957386
0.029613845 0.084434256 0.00943207
0.029680949 0.087056935 0.010148874
0.029712917 0.088915505 0.010874955
0.023931852 -0.095400728 0.012207592
0.024078911 -0.092865989 0.011802555
0.024344388 -0.090455778 0.011153219
0.032189388 0.082306489 0.0090503637
0.032240622 0.084314555 0.0095248576
0.032273155 0.086810239 0.010492403
0.032323383 0.088796526 0.010967174
0.026680434 -0.092916973 0.012185417
0.026877189 -0.090502672 0.011241751
0.027322492 -0.089014888 0.011236745
0.034821589 0.082186528 0.0091433404
0.034867402 0.084194832 0.0096176304
0.034889035 0.086691007 0.010584811
0.035137434 0.089042194 0.011061422
0.035816982 0.091628551 0.011049449
0.028907895 -0.093023688 0.011801734
0.029133379 -0.090605482 0.011321459
0.029202612 -0.089100577 0.011303138
0.037060499 0.081707478 0.0092276018
0.037148971 0.084100313 0.0099675246
0.037038945 0.086579047 0.010888335
0.037205715 0.089321837 0.011129341
0.037291501 0.09118744 0.011106671
0.031285718 -0.092965685 0.011428581
0.031389572 -0.090708308 0.011401151
0.031655479 -0.089023851 0.011387203
0.0394268 0.079903029 0.0093344981
0.039495092 0.081869297 0.0097386902
0.039643373 0.084226407 0.010783642
0.03939829 0.08643838 0.011245068
0.039070286 0.089236856 0.011195215
0.033818517 -0.093012564 0.011517097
0.034021776 -0.090828285 0.011494098
0.034239464 -0.088827446 0.011474178
0.042903908 0.077670977 0.0094858315
0.04195074 0.079291031 0.0094304802
0.042078707 0.081565045 0.010279289
0.042136386 0.084136695 0.011271659
0.041526299 0.085759796 0.011328224
0.036653977 -0.090948254 0.011587106
0.036659483 -0.088780634 0.011557497
0.044544559 0.077294573 0.0095479293
0.044424705 0.078949019 0.0098546073
0.044386603 0.081403419 0.010953671
0.044271257 0.08369039 0.011451917
0.038175419 -0.090640575 0.011635644
0.038244653 -0.089135647 0.011617368
0.046816029 0.076627001 0.0097268801
0.047035031 0.078655355 0.010759309
0.046748135 0.081095785 0.011448456
0.045898344 0.083317138 0.011513506
0.042398304 -0.088947937 0.011758915
0.042519432 -0.086314335 0.011726916
0.04299935 -0.084074095 0.011712757
0.049909975 0.074335515 0.0097747752
0.0492808 0.076079123 0.0099291075
0.049463194 0.078453168 0.01137051
0.049507435 0.08053533 0.011676977
0.044188756 -0.088935286 0.011820867
0.044399608 -0.086400017 0.011793295
0.044520795 -0.083766416 0.011761326
0.045342054 -0.082295775 0.011769589
0.051853869 0.073587142 0.0098525304
0.051752381 0.075822592 0.010485383
0.051688597 0.078311741 0.011533042
0.051744983 0.080433354 0.011756009
0.046655804 -0.08650285 0.011872987
0.046776924 -0.083869234 0.011841019
0.047010452 -0.082070202 0.011824374
0.054079041 0.071581796 0.0099572809
0.054240838 0.07362061 0.01040186
0.054272149 0.07612513 0.011277494
0.054269589 0.078448787 0.011870882
0.054460883 0.080982618 0.011842692
0.049409192 -0.083989203 0.011933967
0.049512982 -0.081731834 0.011906536
0.05047119 -0.080016084 0.011916197
0.056846857 0.069495149 0.010081996
0.056540083 0.071017198 0.010050421
0.056741893 0.073170736 0.010874571
0.056811813 0.075832509 0.01174489
0.056880053 0.078329787 0.011963101
0.051951665 -0.084010832 0.012022517
0.052145183 -0.08185178 0.011999544
0.052331205 -0.079447351 0.011972938
0.059185736 0.068849973 0.010172048
0.059075821 0.070701115 0.010587502
0.059058465 0.073043078 0.011194065
0.058997419 0.075616002 0.01207387
0.054269418 -0.081826173 0.012740016
0.054505922 -0.079305463 0.012129832
0.054805748 -0.077260323 0.01202872
0.061710622 0.066006012 0.010298713
0.061477795 0.068166122 0.010475389
0.061651357 0.070415892 0.011313736
0.061474502 0.072738804 0.011865815
0.057154763 -0.079440981 0.01214017
0.057258617 -0.077183604 0.012112785
0.064614996 0.06361153 0.010432404
0.06399744 0.065622434 0.010537288
0.063892014 0.067873143 0.011195472
0.063979186 0.070378155 0.012045812
0.064098224 0.072766192 0.01229003
0.060005665 -0.077147216 0.012207612
0.060456317 -0.074841022 0.012191522
0.060833257 -0.073199302 0.012182027
0.066767335 0.061251324 0.010539526
0.066346712 0.063029908 0.010500516
0.0662826 0.065349586 0.011216903
0.066235431 0.068027318 0.011929009
0.066232726 0.070425503 0.01239628
0.061925169 -0.076767914 0.012268999
0.062268134 -0.074772783 0.012253457
0.062542975 -0.07243941 0.012230916
0.069147296 0.058378056 0.010661622
0.068554811 0.060392972 0.010613374
0.068828233 0.062672369 0.011175241
0.068793952 0.065047845 0.011746012
0.068723068 0.067694701 0.012520221
0.06461557 -0.074712202 0.01233408
0.065021522 -0.072259136 0.01231439
0.065427482 -0.069806091 0.012294806
0.066100866 -0.067909792 0.012292068
0.071789436 0.05574419 0.010789491
0.071098499 0.057603642 0.010739976
0.071013413 0.060024563 0.011078959
0.07139831 0.062489763 0.011783977
0.071181491 0.064770505 0.012463763
0.067163937 -0.072105438 0.012386664
0.067774914 -0.069745511 0.012375414
0.067968428 -0.067586474 0.012352455
0.068700016 -0.066017486 0.012356248
0.073989987 0.053067617 0.01090266
0.073575407 0.055271637 0.010958051
0.073427506 0.057690583 0.011365435
0.073487036 0.060034011 0.011790138
0.073434681 0.062408626 0.012119578
0.069313638 -0.0690616 0.012419385
0.070045225 -0.067492612 0.012423221
0.07039956 -0.065114699 0.012402814
0.070932619 -0.062537566 0.012385877
0.076059498 0.050271332 0.011012889
0.075753517 0.052479461 0.011048895
0.075937264 0.055113453 0.011755181
0.076004915 0.057666507 0.011910059
0.071912795 -0.067169286 0.01248355
0.072732069 -0.064962469 0.012481634
0.073009469 -0.062443711 0.012456628
0.073398091 -0.06036688 0.012441596
0.074327931 -0.058356598 0.012446207
0.07870169 0.047637478 0.011140805
0.078167237 0.049672574 0.011094255
0.078221403 0.052057385 0.011530351
0.078505598 0.054924317 0.012034517
0.075402498 -0.06230142 0.012537733
0.075745523 -0.060306292 0.012522206
0.075930335 -0.057778418 0.012493846
0.076722585 -0.05544959 0.012489317
0.080754995 0.044946641 0.011249041
0.080746889 0.047407553 0.011314991
0.080530509 0.049776889 0.011902625
0.078122839 -0.057775516 0.01256987
0.078243971 -0.055141915 0.012537901
0.078792192 -0.053055588 0.012528215
0.083357707 0.039633553 0.011412364
0.082807802 0.042014979 0.011360575
0.083049729 0.04453174 0.011601171
0.083068013 0.047251403 0.012173211
0.080410495 -0.055146396 0.012613123
0.080980077 -0.053004503 0.01260342
0.081257425 -0.050485738 0.012578413
0.081808299 -0.047871716 0.01256162
0.082437001 -0.045907564 0.012556416
0.085792206 0.032484934 0.011595109
0.085469857 0.034353293 0.011558262
0.08519534 0.036986079 0.011512498
0.085237883 0.039547872 0.011478772
0.085343786 0.042016353 0.01171538
0.083854593 -0.047857258 0.012632415
0.083958447 -0.045599885 0.012604985
0.084301412 -0.04360475 0.012589458
0.088033631 0.026601845 0.011753757
0.087659188 0.029383698 0.011702552
0.087523863 0.031903327 0.01166322
0.087627709 0.034160692 0.011635791
0.0877489 0.036794301 0.011603747
0.085583679 -0.043034825 0.01262611
0.087537862 -0.033321418 0.012560364
0.090012893 0.020479346 0.011906614
0.089788228 0.022148466 0.011875876
0.089556508 0.024394313 0.011937045
0.089849211 0.026724432 0.012122967
0.089786306 0.02920107 0.012207747
0.089924112 0.03161937 0.012114267
0.089425772 0.033927936 0.01170136
0.089041971 -0.033389974 0.012613486
0.089163095 -0.030756369 0.012581518
0.089643016 -0.028516129 0.012567358
0.090122871 -0.026275894 0.012553183
0.092113279 0.016990459 0.012027457
0.091622464 0.01942574 0.011976945
0.091586232 0.021915719 0.011941476
0.091578916 0.024307774 0.01245413
0.090771116 -0.028567543 0.012607182
0.091221966 -0.025787383 0.012584644
0.091555551 -0.023217324 0.012560885
0.092370711 -0.021100082 0.012560048
0.09274251 -0.018477907 0.012536881
0.093073592 -0.015961584 0.012513796
0.093343556 -0.013604066 0.012490753
0.093464747 -0.010970458 0.012458755
0.093654178 -0.0084907822 0.012431229
0.094232559 0.0016246465 0.012312229
0.094157003 0.0040786988 0.012275888
0.094278201 0.0067123068 0.012243889
0.093850598 0.012160854 0.012154131
0.093496263 0.014288307 0.012112609
0.093600109 0.016545676 0.01208518
0.093563944 0.019035649 0.012049666
0.0930904 0.021847168 0.01199457
0.094367802 -0.015912849 0.012558006
0.094471648 -0.013655478 0.012530576
-0.074681096 -0.030069042 0.0058864653
-0.074611574 -0.028557908 0.0058681043
-0.074630544 -0.02567987 0.0058279056
-0.072641529 -0.035083484 0.0060261674
-0.073211074 -0.033070002 0.0059787333
-0.073205493 -0.030893443 0.0059490176
-0.073101275 -0.028626742 0.0059214672
-0.070124857 -0.046176881 0.006265997
-0.070003226 -0.043532398 0.0062338752
-0.070259161 -0.040870704 0.0061883978
-0.070532426 -0.038586788 0.0061475374
-0.070788361 -0.03592509 0.0061020451
-0.06849286 -0.04360123 0.0062872237
-0.066115238 -0.057716895 0.0065637766
-0.064604871 -0.057785731 0.0066171256
-0.064535417 -0.056274593 0.0065987781
-0.061859149 -0.058415636 0.0067210691
-0.061892308 -0.056395054 0.0066921199
-0.058911148 -0.065616742 0.0069223423
-0.05903041 -0.064097002 0.0068973107
-0.058737349 -0.06183891 0.0068764314
-0.059370894 -0.059159998 0.0068176128
-0.059249204 -0.056515511 0.0067855064
-0.056749944 -0.067986697 0.0070299078
-0.057336848 -0.066351004 0.0069870604
-0.057241242 -0.064273193 0.0069618039
-0.057227049 -0.061907742 0.0069297943
-0.057004899 -0.059188601 0.0068231113
-0.054738767 -0.068684071 0.00710929
-0.054792508 -0.066561602 0.0070782355
-0.054792326 -0.064344332 0.0066307932
-0.054645654 -0.061983556 0.0064046043
-0.051980399 -0.071232677 0.0072400174
-0.052271087 -0.06932655 0.007203728
-0.052256931 -0.066738352 0.0067238677
-0.052287545 -0.064534977 0.0061366139
-0.050028481 -0.07198415 0.0073180767
-0.049833804 -0.069361024 0.0070743388
-0.049718581 -0.066920936 0.0063419491
-0.049633604 -0.064655937 0.0062303795
-0.0471959 -0.074154846 0.0074462006
-0.047484133 -0.072194748 0.0074092513
-0.047363598 -0.069765508 0.0066652703
-0.047084305 -0.067052923 0.0063517704
-0.044522963 -0.076367848 0.0075693601
-0.044945311 -0.074581906 0.0075301728
-0.044982135 -0.072415963 0.0068319784
-0.044931661 -0.069811977 0.006464398
-0.044809476 -0.067156591 0.0064321235
-0.037748624 0.069516823 0.005798839
-0.042685356 -0.076861717 0.007639904
-0.042747039 -0.074738465 0.0072749937
-0.042778965 -0.072571002 0.0065770112
-0.042656828 -0.069915637 0.0065447511
-0.036023449 0.07000605 0.005851978
-0.035661638 0.072387196 0.0058317985
-0.035077114 0.074127249 0.0058281468
-0.039730586 -0.07966534 0.0077809966
-0.040170189 -0.077460662 0.0076728649
-0.040213257 -0.074954219 0.0067821974
-0.04012502 -0.072691962 0.0066707768
-0.040399414 -0.070398644 0.0066297092
-0.03325871 0.072530083 0.005913198
-0.03301245 0.074357636 0.0058966186
-0.037538189 -0.080124915 0.0078633698
-0.037621509 -0.077670507 0.0072430214
-0.037674908 -0.075179465 0.0067899693
-0.037999801 -0.073295668 0.0067527588
-0.030615611 0.072409622 0.0060065845
-0.030421246 0.074577563 0.0059835091
-0.03521242 -0.082344636 0.0079745799
-0.035411652 -0.080000393 0.00760188
-0.035405602 -0.077468656 0.0069001764
-0.035714969 -0.075934023 0.0068683173
-0.028245844 0.074573085 0.0060590645
-0.027901383 0.076576449 0.006043457
-0.032902148 -0.084216602 0.0080804722
-0.033071574 -0.082638785 0.0079528298
-0.032863319 -0.080233186 0.0070889452
-0.033346545 -0.078132696 0.0069807074
-0.025980297 0.074469812 0.0061390959
-0.025794746 0.077008151 0.0061106151
-0.025016613 0.078968808 0.0061106626
-0.03053393 -0.084829293 0.008171075
-0.030536307 -0.082970068 0.0076905573
-0.03030616 -0.080590084 0.007120017
-0.023215562 0.076993845 0.0062003005
-0.022949859 0.079480335 0.0061753495
-0.02795973 -0.085350432 0.0082675526
-0.028050927 -0.083102904 0.0073439986
-0.028080769 -0.081060767 0.0072037
-0.020572459 0.076873399 0.0062936721
-0.020450823 0.079517893 0.0062615499
-0.020003745 0.081011795 0.0062564998
-0.02566985 -0.085610636 0.0082735941
-0.025413204 -0.083245955 0.0073263152
-0.025584519 -0.081464171 0.0072958427
-0.018055327 0.076894708 0.0059137237
-0.01818534 0.079414628 0.0063415654
-0.017950868 0.081221089 0.0063248682
-0.023224015 -0.087686293 0.0084639685
-0.023097334 -0.08593072 0.0081773838
-0.022858433 -0.08345741 0.0074178525
-0.015467206 0.079209752 0.0063616931
-0.015338134 0.081487492 0.0064118514
-0.020497823 -0.088351354 0.0085677067
-0.02056876 -0.086055286 0.0078665623
-0.020501904 -0.083849899 0.0075049936
-0.012936936 0.078912184 0.006280384
-0.012794852 0.081440412 0.0065007587
-0.017664529 -0.090211108 0.0086915717
-0.01828743 -0.088432722 0.0084635634
-0.018386438 -0.085977249 0.0077077309
-0.018244486 -0.084332928 0.0075899512
-0.010669072 0.078808822 0.0063605066
-0.010529365 0.081337146 0.0065807737
-0.0097046653 0.082813889 0.0065890793
-0.015776606 -0.090297163 0.0087582618
-0.015712868 -0.08846166 0.0084850704
-0.015660346 -0.085971236 0.0077021783
-0.016348818 -0.084419318 0.0076569072
-0.0080458522 0.078863837 0.0060755238
-0.0078862635 0.081216715 0.0066741304
-0.0074960287 0.08330211 0.0066590188
-0.0065797172 0.084942922 0.0066682268
-0.013888679 -0.090383202 0.008824951
-0.013067019 -0.088582247 0.0085785361
-0.013006403 -0.086092174 0.0077959141
-0.0054325978 0.078540713 0.0057953764
-0.0052730776 0.080836698 0.006519855
-0.0051389327 0.083362937 0.0067399666
-0.0050694132 0.084874094 0.0067215902
-0.010490389 -0.090538077 0.0089449892
-0.010805001 -0.088703759 0.0085753091
-0.01084984 -0.086407684 0.0078750728
-0.0030052704 0.080733329 0.0065999622
-0.0028733902 0.083259702 0.0068199825
-0.0028038658 0.084770828 0.0068016062
-0.0084223645 -0.090821624 0.0090206433
-0.0082507422 -0.088818491 0.0083319526
-0.0083329612 -0.086913392 0.0079693375
-0.0007981339 0.08078929 0.0068258652
-0.00060790445 0.083156422 0.006900013
-0.00053838128 0.084667586 0.0068816366
-0.0059767766 -0.091122359 0.0091096368
-0.0056502721 -0.089106172 0.0084004691
-0.0054585128 -0.087196447 0.0080729472
0.0020079869 0.078306608 0.0061568306
0.0019876948 0.080589563 0.0067585027
0.0020351934 0.083035983 0.0069933543
0.0021220681 0.084924914 0.006970406
-0.0033510826 -0.091620602 0.0092075951
-0.0032605072 -0.089140467 0.0084261373
-0.0031836773 -0.087300114 0.0081533007
0.0044249729 0.078091465 0.0061435844
0.0045494759 0.080626711 0.0063632187
0.0046783034 0.08291553 0.0070867408
0.0047651734 0.08480446 0.0070637623
-0.0010855962 -0.091723852 0.0092876256
-0.00098799879 -0.089244053 0.0085064145
-0.00090884574 -0.087403782 0.0082336543
0.0066998065 0.077987783 0.006223938
0.0068219258 0.080523156 0.0064434949
0.0069437861 0.082812279 0.0071667563
0.0070306594 0.084701203 0.0071437927
0.0015749171 -0.091466524 0.0093763806
0.001664472 -0.089350931 0.0086624427
0.0017451054 -0.087524749 0.008327405
0.0085256658 0.076384038 0.0063093109
0.009353755 0.077866822 0.0063177031
0.0094741927 0.080432266 0.0064742267
0.009586894 0.082691818 0.007260113
0.0096737612 0.084580742 0.0072371643
0.0042179623 -0.091586977 0.0094697513
0.0043144799 -0.089485705 0.0086937109
0.0043990477 -0.087645695 0.0084211547
0.012007761 0.07774587 0.0064114393
0.012129893 0.080401249 0.0063791797
0.01222994 0.082571365 0.0073534837
0.012316863 0.084460288 0.007330521
0.0064835055 -0.09169025 0.0095497668
0.0065869917 -0.089589268 0.0087739872
0.006673885 -0.087749377 0.0085015083
0.014212786 0.076124839 0.0065101944
0.014282535 0.077642202 0.0064917924
0.014404737 0.080297567 0.0064595332
0.014495481 0.082468092 0.0074335141
0.014582353 0.084357038 0.007410551
0.0091265533 -0.091810696 0.0096431384
0.0092373108 -0.089696042 0.0089299697
0.0093278363 -0.087870337 0.008595244
0.016849253 0.075624555 0.0066085793
0.016936544 0.077521242 0.0065855579
0.01704818 0.080057099 0.0068047238
0.017138526 0.082347639 0.0075268559
0.017225457 0.084236577 0.0075039077
0.011787065 -0.091553383 0.0097319083
0.011884315 -0.089774661 0.0092104925
0.012180139 -0.087810256 0.0086933915
0.019355064 0.075586371 0.0066960291
0.019590493 0.077400297 0.0066792788
0.019699447 0.079936251 0.006898365
0.019781629 0.082227193 0.007620242
0.01986856 0.084116116 0.0075972788
0.014052549 -0.091656633 0.0098119387
0.014151718 -0.08985959 0.0093737096
0.014389906 -0.087557994 0.0087666288
0.021795519 0.075779259 0.0067780493
0.021865327 0.077296615 0.0067596324
0.02196133 0.079753689 0.0071461308
0.022047112 0.082123943 0.0077002719
0.022116635 0.083635084 0.0076818806
0.015562857 -0.091725461 0.0098652868
0.016711442 -0.090004221 0.0096813226
0.016706465 -0.087576605 0.0089473268
0.024208011 0.075365201 0.0068674656
0.024140162 0.077192947 0.0068399855
0.024442196 0.079675302 0.0073881438
0.024690218 0.082003467 0.0077936137
0.023626998 0.083566248 0.0077352445
0.019310309 -0.090165623 0.0099738659
0.019268174 -0.087809302 0.0092061851
0.019669281 -0.086060837 0.008929194
0.026706882 0.075175293 0.0069567873
0.026794111 0.077071987 0.0069337511
0.027019905 0.079307452 0.0075541297
0.027215535 0.081672058 0.0078857923
0.021511007 -0.089914374 0.01004677
0.021826183 -0.087951645 0.0095303813
0.022109741 -0.085867964 0.0090112295
0.029360827 0.075054333 0.0070505226
0.029448058 0.076951034 0.0070274863
0.02950041 0.079251878 0.0077481545
0.029581461 0.081401974 0.0079715876
0.023218831 -0.089802921 0.010104495
0.02407863 -0.088001356 0.0098593738
0.024236379 -0.085888855 0.0090852967
0.031635661 0.074950665 0.0071308762
0.031722896 0.076847345 0.0071078399
0.031768214 0.079148538 0.0078282766
0.031846941 0.081298724 0.008051618
0.026609078 -0.087917209 0.010124708
0.026907811 -0.085630476 0.0091744727
0.028115006 -0.084164955 0.0091961725
0.034272183 0.074450381 0.0072292611
0.034376897 0.076726399 0.0072016055
0.034414001 0.079027951 0.0079217274
0.034490041 0.08117827 0.0081449747
0.029364442 -0.087811559 0.010290369
0.029540762 -0.085704818 0.009489201
0.02982986 -0.08405304 0.0092541287
0.036926128 0.074329421 0.0073229964
0.037017293 0.076868519 0.0075414232
0.037046224 0.079168901 0.0082613081
0.037115745 0.080680035 0.0082429321
0.031539906 -0.08781606 0.010365896
0.031779431 -0.085739046 0.0099009136
0.032039631 -0.08380077 0.0093273651
0.039311979 0.072510079 0.0074307523
0.039200969 0.074225731 0.00740335
0.03924517 0.076611385 0.0079558119
0.039213009 0.078975506 0.0083391285
0.03413111 -0.087596141 0.010452772
0.034386374 -0.085785568 0.010353352
0.034677207 -0.083386578 0.009479912
0.035837419 -0.081475824 0.0094271339
0.041848585 0.071607061 0.0075312294
0.041896082 0.074253656 0.0078300275
0.041768771 0.076601222 0.0083834641
0.041362386 0.078404315 0.0084215645
0.037131004 -0.087597661 0.010556889
0.037020415 -0.085889004 0.010529564
0.037224952 -0.083374627 0.0098349769
0.037629947 -0.081050687 0.0094835097
0.044299491 0.069431745 0.0076461318
0.044386733 0.071328461 0.0076231253
0.044397429 0.073987715 0.0084207999
0.044375848 0.076347075 0.0085544083
0.039454963 -0.09054289 0.010678004
0.039322283 -0.088492528 0.010645235
0.039285902 -0.085992269 0.010609593
0.039370179 -0.083500549 0.010305335
0.039718792 -0.081025839 0.0096557187
0.040112633 -0.079389878 0.0095468033
0.046755146 0.069129772 0.0077354857
0.046634056 0.071151234 0.0078703109
0.046637483 0.073810294 0.0086677531
0.046346791 0.075716414 0.0086314641
0.041052192 -0.088722803 0.010708405
0.041173827 -0.086078316 0.010676268
0.041810207 -0.083760142 0.0106665
0.042199735 -0.081259407 0.010332896
0.042141534 -0.078939289 0.0096110394
0.048913382 0.068556264 0.0078182751
0.049082909 0.071031108 0.0082190037
0.049165208 0.073532835 0.0087592723
0.044734105 -0.081215844 0.010732949
0.044670839 -0.0788083 0.0098637799
0.045344431 -0.077157438 0.0096976338
0.051639527 0.066563018 0.0079402551
0.051559903 0.068495028 0.0080539044
0.05151774 0.070732497 0.0086292224
0.05169142 0.072633527 0.0088592777
0.046982944 -0.080826685 0.010805625
0.04722175 -0.078819774 0.010563948
0.047455817 -0.076683469 0.0097644115
0.048283905 -0.075200669 0.0097727291
0.054326802 0.06441316 0.0080630323
0.054017443 0.065947786 0.0080312332
0.05402628 0.068353243 0.0085822009
0.053949695 0.07061068 0.008965455
0.049003605 -0.080377951 0.010869565
0.049450688 -0.07888402 0.01086456
0.049671441 -0.076729812 0.010175457
0.049925804 -0.074610263 0.0098216021
0.056286745 0.06365861 0.0081414403
0.056241866 0.066083416 0.0084401052
0.056228753 0.06845168 0.009074213
0.055543087 0.069997236 0.0090291696
0.051553477 -0.078411989 0.010931009
0.052213237 -0.076751694 0.010847684
0.052471094 -0.074222125 0.010092215
0.053249229 -0.071879052 0.0098993601
0.059609853 0.060877889 0.0082949474
0.058824092 0.063067801 0.0082376115
0.05878948 0.065764047 0.0090123741
0.058575593 0.068060786 0.0091610113
0.054710984 -0.076398008 0.011012901
0.055011835 -0.074252792 0.010743664
0.055282939 -0.071718313 0.0099677322
0.055551045 -0.070019931 0.0099536525
0.062044367 0.058739565 0.0084088035
0.061455019 0.06038199 0.0083658053
0.06136556 0.062744156 0.0088305576
0.061211947 0.065280095 0.0092907222
0.057141423 -0.076205917 0.011094566
0.057228293 -0.074316993 0.011071617
0.057418559 -0.071721613 0.01070899
0.057662431 -0.069545969 0.010020415
0.058490522 -0.06806317 0.010028733
0.06421449 0.056359857 0.0085168267
0.063625142 0.058002293 0.0084738284
0.063648283 0.060352378 0.0087152272
0.063477635 0.062710658 0.0093045766
0.063114777 0.064604461 0.0093660122
0.059406903 -0.076309159 0.011174595
0.059349764 -0.074262246 0.011144491
0.059993092 -0.071792975 0.011132852
0.060205627 -0.069596007 0.010609694
0.060214348 -0.067296982 0.010078041
0.065960541 0.055773444 0.0085854866
0.066092059 0.05800483 0.0089882556
0.065898314 0.06028343 0.0094386125
0.065275982 0.062234525 0.009473592
0.062155895 -0.071386769 0.01120231
0.062740415 -0.069646716 0.011198673
0.06262666 -0.067065388 0.010533804
0.06312269 -0.064641885 0.010142463
0.064042807 -0.062994339 0.010151701
0.068624549 0.053117786 0.0087144421
0.068307534 0.055348627 0.0088395514
0.0684205 0.057517674 0.0095641427
0.067929052 0.059589766 0.0096019981
0.064525664 -0.069223322 0.01125479
0.065020159 -0.067384519 0.011246664
0.065331213 -0.06488841 0.010806184
0.065684646 -0.062403932 0.010200588
0.066422299 -0.060821984 0.010204398
0.071291134 0.04501345 0.0089183385
0.071117006 0.047834385 0.0088735372
0.070858888 0.050069936 0.0088338573
0.070837632 0.052574191 0.0089654848
0.07077001 0.054959629 0.0096530253
0.070318863 0.056704633 0.0097245779
0.067032866 -0.066813745 0.011308655
0.067802913 -0.064880244 0.011308788
0.06805861 -0.062341936 0.011032609
0.068190284 -0.060300864 0.010369788
0.068560727 -0.058385216 0.010245101
0.073099621 0.04303037 0.009008361
0.072807692 0.044944335 0.0089719575
0.07319133 0.047815204 0.0091959536
0.073236875 0.05010967 0.0095316311
0.072985984 0.052371878 0.0097857192
0.07248006 0.05433467 0.0098321578
0.069536932 -0.069956474 0.011438735
0.071116813 -0.068514168 0.011473737
0.069797665 -0.064289711 0.011369891
0.070193559 -0.062263452 0.011355777
0.070519216 -0.060105547 0.011155454
