# .PCD v0.7 - Point Cloud Data file format
VERSION 0.7
FIELDS x y z
SIZE 4 4 4
TYPE F F F
COUNT 1 1 1
WIDTH 1274
HEIGHT 1
VIEWPOINT 0 0 0 1 0 0 0
POINTS 1274
DATA ascii
-0.028042654 -0.07556814 0.0093349647
-0.030168867 -0.074894086 0.0093104234
-0.032810941 -0.07379669 0.0092879767
-0.035017908 -0.072967142 0.0092665199
-0.037144113 -0.072293088 0.0092419917
-0.03945389 -0.071084768 0.009480211
-0.04188728 -0.06999097 0.0095758168
-0.043989215 -0.069043167 0.0098122563
-0.046045564 -0.067945659 0.0098535717
0.0086102253 -0.082810842 0.01056029
0.0065367776 -0.082606599 0.010522351
0.0041746218 -0.082373597 0.010212309
0.0019528585 -0.081799738 0.0099253394
-0.0002135227 -0.081272274 0.0097524328
-0.044155303 -0.067342207 0.0092454311
-0.046215769 -0.066605106 0.0094744395
-0.048182845 -0.065536402 0.0096322391
-0.050444707 -0.064484827 0.0098154098
-0.052855361 -0.063475676 0.010180042
0.016850822 -0.082468413 0.01108029
0.014412706 -0.082348078 0.010931914
0.011887035 -0.082097553 0.010530953
0.0096588368 -0.081803493 0.010310577
0.0071923016 -0.081281461 0.0099101728
-0.050383285 -0.062873431 0.0092506735
-0.05263561 -0.062061649 0.0095279356
-0.054721065 -0.061056901 0.0098575875
-0.056814898 -0.059640076 0.010088998
-0.058313981 -0.058640201 0.010213015
0.019674577 -0.081304632 0.010926326
0.017800778 -0.081129581 0.010505136
0.01535843 -0.081044517 0.010091754
0.012826271 -0.08072897 0.010047475
-0.054503873 -0.059384521 0.0092705963
-0.056697011 -0.058048207 0.009376321
-0.058643252 -0.056773275 0.0096799741
-0.060546797 -0.055679359 0.010006718
0.022408431 -0.080238439 0.010767457
0.020735713 -0.08005777 0.010437127
-0.058922339 -0.054865774 0.0093160002
-0.060732905 -0.05401798 0.0096371463
-0.062480647 -0.0528492 0.0098861568
-0.064462356 -0.051567879 0.010300444
-0.062554009 -0.05106416 0.0093560321
-0.064328611 -0.049969453 0.0095743919
-0.066420488 -0.048985545 0.010138359
-0.068078823 -0.047782149 0.010340296
0.032042734 -0.076687254 0.010582429
-0.064664103 -0.048368465 0.0093943253
-0.066308521 -0.04736172 0.0095333168
-0.068118073 -0.045886368 0.0098592108
-0.069879048 -0.044882741 0.01039151
0.039350417 -0.076404832 0.011747799
0.037189338 -0.07662607 0.01144467
0.034895115 -0.076605581 0.01109057
0.032548148 -0.076195262 0.010858596
-0.068417214 -0.043800864 0.0094554406
-0.070076838 -0.042906869 0.010048094
-0.072041102 -0.04128642 0.010456547
0.040218037 -0.074964687 0.011685728
0.038194187 -0.074968182 0.011017009
-0.069870621 -0.041001558 0.0095109632
-0.071636416 -0.03985808 0.0097588347
-0.07352265 -0.038811419 0.010501431
0.045309175 -0.073118858 0.011976528
0.043409601 -0.07321319 0.011833004
0.041049577 -0.072912566 0.01122485
-0.072032772 -0.03797761 0.0095582921
-0.073382743 -0.036657441 0.0099342009
-0.074753895 -0.035574857 0.0105752
0.046314709 -0.07165172 0.011932126
0.044321883 -0.071415 0.011150376
0.042660169 -0.071478523 0.010969992
-0.073460773 -0.034276947 0.009642222
-0.074928477 -0.033305798 0.010141261
-0.076590061 -0.032146543 0.010642021
0.049805798 -0.069846176 0.011172923
0.047321156 -0.070190348 0.01127603
-0.074715324 -0.031670645 0.0096960189
-0.076231413 -0.030255023 0.010174419
-0.078037396 -0.02935899 0.01069731
0.052474711 -0.067574248 0.01130009
-0.076407395 -0.027911274 0.0099190855
-0.078068182 -0.026988437 0.010538987
-0.079657465 -0.025481667 0.01078258
0.053997189 -0.066365533 0.01203706
-0.077928871 -0.024980942 0.0099772047
-0.079638258 -0.0238389 0.01053356
0.056542143 -0.064267047 0.011889393
0.054890763 -0.064715996 0.01164014
-0.077744819 -0.023175029 0.0098939817
-0.079214767 -0.021877449 0.010175638
-0.08079543 -0.020800466 0.010652809
0.059685629 -0.062765978 0.012603282
0.058174141 -0.062612601 0.011825244
-0.078973942 -0.019667309 0.0099761849
-0.080610849 -0.01868147 0.010400617
-0.082119778 -0.017559603 0.01097493
0.062386721 -0.061041206 0.012714249
0.060648222 -0.060645305 0.012689377
0.058973327 -0.060198411 0.012167123
-0.080673166 -0.01616649 0.010048141
-0.08222843 -0.015310955 0.010860178
0.0659995 -0.05846053 0.01287111
0.063878201 -0.058894921 0.012678995
0.06166967 -0.058692221 0.011882036
0.059866898 -0.059004538 0.011722724
-0.080463283 -0.014518114 0.010103579
-0.081913516 -0.013050714 0.010425872
-0.083127961 -0.01214669 0.01092057
0.066773124 -0.056998041 0.012932827
0.064868182 -0.056697987 0.012355636
-0.08169245 -0.011010451 0.010185782
-0.082742341 -0.010373776 0.010933579
0.067659952 -0.054947581 0.012903932
0.065744013 -0.054695264 0.01223153
-0.084736779 -0.0066674384 0.010255063
0.070510939 -0.05238694 0.013155128
0.068603583 -0.052687917 0.013105123
0.066736855 -0.052520491 0.012784529
0.073137417 -0.05063213 0.013265402
0.071502551 -0.050890066 0.013222526
0.069455832 -0.050512306 0.012301057
0.067259081 -0.050434832 0.012145358
0.073911063 -0.049169593 0.013327119
0.072339147 -0.048606858 0.012674133
0.070878975 -0.048854113 0.012271465
-0.083289571 0.0011885405 0.01052879
-0.084296867 0.0014271777 0.011015023
0.075186148 -0.046818178 0.013427018
0.073457234 -0.046444178 0.012526073
-0.082841024 0.0026053709 0.010582147
-0.084211156 0.0036474827 0.011156949
0.076206058 -0.04461867 0.013516779
0.074095093 -0.043929882 0.012492315
-0.083679706 0.0059469733 0.011031457
-0.084951401 0.0068583502 0.011669292
0.079457924 -0.042932678 0.013638272
0.077003516 -0.042158496 0.013547319
0.074838012 -0.041499138 0.01258327
-0.083341651 0.0080178296 0.011024688
-0.084265254 0.0087593542 0.011492512
0.080239572 -0.040463593 0.013731253
0.077898078 -0.039748296 0.013203046
0.075548336 -0.039031465 0.012674722
0.074355125 -0.037873697 0.012685054
0.080645934 -0.038278516 0.013473905
0.078407921 -0.037696872 0.012777016
0.076705605 -0.037839334 0.012736275
0.074579395 -0.03716528 0.012711733
0.081508763 -0.035841685 0.01327576
0.079486653 -0.035213169 0.012876804
0.08225742 -0.033352003 0.013493783
0.080033861 -0.032560866 0.012970458
0.082975931 -0.031247981 0.013407401
0.081186637 -0.031074999 0.013040985
-0.082186513 0.021300975 0.011174028
-0.083511271 0.021628961 0.011656239
-0.081280477 0.023547094 0.011262798
-0.082847312 0.024134209 0.011940296
-0.080495521 0.026026575 0.011356181
-0.082311168 0.026594484 0.01208556
0.085388452 -0.023835564 0.013479483
-0.079710603 0.028506005 0.011449595
-0.081528686 0.029066179 0.012178638
-0.083786011 0.030164476 0.01241457
0.086185597 -0.021359343 0.013531347
-0.078925654 0.030985488 0.011542964
-0.080746233 0.03153782 0.012271731
-0.08311604 0.032280799 0.012494291
0.086959437 -0.019334512 0.013527053
-0.077842422 0.033175439 0.011633794
-0.080009148 0.033627935 0.012518828
-0.081963599 0.033467956 0.012555585
0.088022485 -0.016872387 0.013625843
-0.075312421 0.034852557 0.012740313
-0.076660283 0.035298925 0.012367937
-0.078744799 0.035785414 0.012695909
0.090933651 -0.015066962 0.013743783
0.088570103 -0.014246841 0.013718682
-0.0761474 0.037519295 0.012519023
-0.077706739 0.038328487 0.012796653
0.091606453 -0.012941713 0.013823834
0.089125864 -0.012155333 0.013795202
0.086956292 -0.011207719 0.013778218
-0.075958706 0.040319964 0.012094962
-0.077036768 0.040444806 0.012876361
0.08991079 -0.0096759051 0.01388857
0.087464072 -0.0090065449 0.013857081
0.085589617 -0.0089555932 0.013818669
-0.07487087 0.042561937 0.011987307
-0.076777726 0.04319049 0.012966792
0.090695754 -0.0071964241 0.013981984
0.088923894 -0.0066347462 0.013961547
-0.074085928 0.04504136 0.012080721
-0.076179214 0.045606732 0.013054251
0.091411911 -0.005344796 0.014054521
0.089372434 -0.0052179168 0.014014919
-0.073085837 0.047229897 0.012419871
-0.075397559 0.048075806 0.013147264
-0.077514887 0.048746981 0.0131228
0.092135526 -0.0014167748 0.01419137
0.090718038 -0.00096742221 0.014175023
-0.070277683 0.049680449 0.012305378
-0.072031751 0.049486537 0.012662253
-0.074519411 0.05035904 0.013236559
0.092584036 1.428055e-09 0.014244742
0.090692371 0.00071105466 0.01422638
-0.069717027 0.05145146 0.012372081
-0.07121323 0.051827602 0.013102329
-0.072998919 0.051972892 0.013318888
0.091242775 0.003153479 0.014313583
0.090161711 0.0046654842 0.014337276
-0.069268495 0.052868288 0.012425453
-0.070589609 0.054413039 0.01275774
-0.072559632 0.05555756 0.013188879
0.092027724 0.0056329607 0.014406997
0.090489119 0.0063155666 0.014395262
-0.06791389 0.056531295 0.012567583
-0.069918998 0.056972045 0.012538412
-0.071915105 0.056825362 0.012491296
0.090690933 0.0084927017 0.014466879
-0.064962372 0.058258954 0.012683966
-0.066765614 0.058310915 0.012647095
-0.069246188 0.05909729 0.012618463
0.09135925 0.010911692 0.014555889
0.090053894 0.011715223 0.01455289
-0.063526154 0.060078211 0.012837534
-0.066033423 0.060653411 0.013610783
0.090372324 0.013952794 0.014628851
-0.0627914 0.062578462 0.012863795
-0.059884738 0.064444348 0.012983507
-0.062042326 0.064608686 0.012942533
-0.057022925 0.066915035 0.013120952
-0.058810651 0.066418804 0.013067451
-0.061257403 0.067088112 0.013035917
0.08823251 0.023205798 0.014869218
-0.056027152 0.068418182 0.013188661
-0.057991866 0.068781219 0.013157963
-0.053542115 0.069903985 0.013287607
-0.055183176 0.070560269 0.013523071
-0.049819082 0.072426371 0.013445021
-0.051975768 0.072018802 0.013386373
-0.049042195 0.073895067 0.013507002
-0.051142387 0.07440494 0.013477926
-0.045961507 0.076400205 0.013650174
-0.04787688 0.07609798 0.013599942
-0.043000989 0.077540375 0.013748582
-0.044965722 0.077903405 0.013717883
-0.039816216 0.079388961 0.013873684
-0.041812323 0.079242274 0.013826539
-0.044292901 0.080028653 0.013797934
-0.039479811 0.080451615 0.013913709
-0.041251652 0.081013292 0.013893272
-0.030486142 0.084226355 0.014222297
-0.032708045 0.084324434 0.014177906
-0.026849797 0.085585333 0.014341886
-0.029216738 0.085772663 0.014297166
-0.023632122 0.086990401 0.014453973
-0.025951212 0.087465763 0.014419167
-0.019029861 0.088389643 0.014595435
-0.020708779 0.088365093 0.014558858
-0.022737266 0.088687979 0.014525569
-0.018339094 0.089339912 0.014639552
-0.019991618 0.089785852 0.014618066
-0.018974746 -0.07878805 0.0084282085
-0.020754013 -0.078224018 0.0084076775
-0.022889134 -0.077547193 0.0083830412
-0.0040650629 -0.081166334 0.0086728306
-0.0058443109 -0.080602244 0.0086523015
-0.0084778713 -0.079948314 0.0083661508
-0.010506825 -0.079234913 0.0082614981
-0.013134045 -0.078849658 0.0080505693
-0.015630187 -0.078058317 0.0080217654
-0.017769756 -0.077380084 0.0079971114
-0.020265913 -0.07658878 0.0079682758
-0.022762055 -0.075797431 0.007939457
-0.024901621 -0.075119205 0.0079147732
-0.027374903 -0.074293166 0.0080126636
-0.029846342 -0.073467769 0.0081105242
-0.032118112 -0.072650865 0.0081065455
-0.034481004 -0.071704976 0.0080660954
-0.03691604 -0.071143545 0.0082816835
-0.039294407 -0.069998205 0.0082663447
-0.041073654 -0.069434121 0.0082458137
0.0040834504 -0.081401184 0.0088394405
0.0015514605 -0.080756381 0.0086623738
-0.00071428641 -0.08028245 0.008407752
-0.0028290008 -0.079763286 0.0082422048
-0.0053587109 -0.079083912 0.0078339987
-0.0077515179 -0.078195825 0.0074851112
-0.0099735381 -0.077486739 0.0069926726
-0.012481807 -0.076691613 0.0069636973
-0.014990057 -0.075896427 0.0069347518
-0.017140005 -0.075214893 0.0069099879
-0.01964826 -0.074419715 0.0068810275
-0.022156524 -0.073624581 0.0068520671
-0.024306454 -0.072943002 0.0068272594
-0.026799576 -0.07212548 0.0068827365
-0.029260485 -0.071263976 0.0071070287
-0.031407449 -0.070583329 0.0070822677
-0.03397271 -0.069988258 0.0073024975
-0.036287639 -0.069179215 0.0075090723
-0.038723733 -0.068496399 0.00782461
-0.041104466 -0.067517564 0.0078040725
-0.043329101 -0.066743404 0.0080079352
-0.045573648 -0.065920189 0.0082584247
0.011745459 -0.080699079 0.0090246294
0.009558565 -0.080495007 0.0089842714
0.0071192305 -0.080297217 0.008538058
0.0049592433 -0.079788625 0.0082151759
0.0026371325 -0.078891158 0.0076747825
0.00016691865 -0.078069128 0.00713039
-0.0021520737 -0.077708028 0.0068191467
-0.0046198862 -0.07718882 0.0067825411
-0.0071664159 -0.076710373 0.0067429682
-0.0091966726 -0.076264054 0.0067134537
-0.023908185 -0.071600318 0.0065436838
-0.026419913 -0.070804112 0.0065147216
-0.028931633 -0.070007853 0.0064857295
-0.031207182 -0.069089174 0.0064655952
-0.033123907 -0.068284228 0.0064495839
-0.035711024 -0.067227274 0.0064270357
-0.038037423 -0.066142112 0.006511013
-0.040137589 -0.065264337 0.0067011649
-0.042552214 -0.064321116 0.0067044441
-0.045148686 -0.063878685 0.0073887482
-0.047468085 -0.06305474 0.0077061411
-0.049746543 -0.062057573 0.0080663916
-0.051896043 -0.060859412 0.0082799513
-0.053731289 -0.059942126 0.0082691396
0.017047156 -0.080031455 0.0091583887
0.01515106 -0.079676792 0.0088286772
0.013013147 -0.079320118 0.0085105533
0.010499199 -0.078744985 0.007745008
0.0079831714 -0.07805559 0.0073581971
0.0059709884 -0.077458724 0.0072002877
0.0037869799 -0.076907188 0.006970603
-0.042375993 -0.062588654 0.0064282035
-0.044415355 -0.061547514 0.0064168973
-0.046681948 -0.060751595 0.006643258
-0.049020503 -0.059885535 0.0067702765
-0.051447123 -0.05910299 0.0073431591
-0.053726226 -0.058069415 0.007793434
-0.055736218 -0.057336476 0.0081639439
-0.057325877 -0.056454249 0.0083002625
0.02318836 -0.079383485 0.0088090897
0.02087269 -0.078906722 0.0088994969
0.018327985 -0.078663327 0.0086025894
0.015943212 -0.077755451 0.0077596921
0.013852416 -0.077318184 0.0072977683
0.011312119 -0.077082679 0.0071257502
-0.048682146 -0.058063772 0.0064335214
-0.050964318 -0.056934405 0.0064197592
-0.053057987 -0.056064781 0.006602075
-0.055454653 -0.055217013 0.0072237747
-0.057786666 -0.054455277 0.0079948334
-0.059574742 -0.053465486 0.0080944877
0.028231608 -0.078097634 0.0094568077
0.026081404 -0.078332946 0.0087108761
0.023960428 -0.077674322 0.007993157
0.021753548 -0.076903529 0.007687618
0.019333046 -0.076536439 0.0073971497
0.016633453 -0.076362304 0.0072615603
-0.053213276 -0.054417312 0.0064495616
-0.055134553 -0.053314965 0.0064426539
-0.057219177 -0.052019008 0.0066201575
-0.059457324 -0.051421922 0.007527356
-0.061570667 -0.050530087 0.0082816333
-0.063456558 -0.049227085 0.0083928481
0.031321377 -0.076909035 0.0088923443
0.029533478 -0.076742418 0.0084348032
0.027182646 -0.07616324 0.0078930967
0.024770349 -0.075291343 0.0074682999
0.022883158 -0.075120598 0.0074332897
-0.057328384 -0.049955592 0.0064996677
-0.058966111 -0.049002465 0.006767083
-0.0610996 -0.048096169 0.007048537
-0.063475445 -0.047272429 0.0079858815
-0.065444663 -0.046315249 0.008190264
-0.067172781 -0.045504954 0.0084286043
0.034977071 -0.075240701 0.0095460955
0.032730058 -0.075134791 0.0087346733
0.030406889 -0.074582301 0.00772167
0.028085969 -0.074171841 0.0075736549
0.025880843 -0.073966086 0.007532944
-0.060721312 -0.046018805 0.0065489896
-0.062805802 -0.045003429 0.0067582577
-0.065195262 -0.044248417 0.007580434
-0.0673199 -0.043465123 0.0082155988
-0.068719372 -0.042144515 0.0084994826
0.037925038 -0.073864736 0.0097944913
0.035639424 -0.073425598 0.0087585822
0.033389043 -0.072878994 0.0078177229
0.031104084 -0.073056705 0.0076725027
-0.062827334 -0.04321352 0.0065907305
-0.064603597 -0.042098846 0.0066873701
-0.066636868 -0.040888626 0.0070483061
-0.069002181 -0.04022501 0.0082798526
-0.070934132 -0.038833205 0.0085545816
0.040575393 -0.071560569 0.009421912
0.038825121 -0.07186503 0.0085889008
0.036552873 -0.071399137 0.0081129242
0.034646783 -0.071219921 0.0078048799
-0.066409953 -0.038732689 0.0066528339
-0.068498679 -0.038068738 0.0072445525
-0.070634574 -0.037035111 0.0080161681
-0.072350062 -0.036296938 0.0086027728
0.044458929 -0.070233189 0.0098793898
0.042060003 -0.070415452 0.0092965439
0.039579313 -0.069698207 0.0079571605
0.037480928 -0.06975054 0.0079107722
-0.068099178 -0.035754111 0.0067088604
-0.070116326 -0.034737062 0.0071975663
-0.072307937 -0.034168102 0.0083359322
-0.073584348 -0.032774571 0.0086853104
0.049582388 -0.06940642 0.010181042
0.047437418 -0.069120549 0.010001172
0.045047563 -0.068547785 0.0091101425
0.042832665 -0.067982785 0.0081705684
0.040869206 -0.068193659 0.0080311792
-0.069570847 -0.032919727 0.0067650732
-0.07151708 -0.031562794 0.00714071
-0.073872685 -0.030844392 0.0084659075
0.050607909 -0.067897178 0.01001864
0.048235018 -0.066964507 0.0090126572
0.045989417 -0.066506609 0.0084655434
0.044093948 -0.066321909 0.0081578689
-0.071533047 -0.029140476 0.0068400195
-0.073428713 -0.028619716 0.0076019177
-0.075101003 -0.027577775 0.0084800227
0.053302977 -0.06569355 0.010375195
0.051562835 -0.065533131 0.0099427523
0.049001012 -0.064756244 0.0084928935
0.046928108 -0.064852469 0.0082637621
-0.072927281 -0.026180273 0.0069017755
-0.07498946 -0.025441501 0.0078812828
-0.076848254 -0.024542281 0.0087589258
0.054318186 -0.06355425 0.010129412
0.052246999 -0.062962718 0.0090515148
0.050152864 -0.062980667 0.0083904378
-0.072953269 -0.024480689 0.0069537396
-0.074419267 -0.02306395 0.0071330387
-0.076539971 -0.02206824 0.0081526441
-0.078485407 -0.021044863 0.0089433212
0.057167824 -0.061858915 0.010409409
0.055304918 -0.061434962 0.0094237514
0.053214099 -0.060793944 0.0085233524
-0.074197829 -0.02092897 0.0070369747
-0.07582251 -0.019799734 0.0073231049
-0.078007542 -0.019064667 0.008514395
-0.079632588 -0.01807194 0.0090107387
0.058201857 -0.059628349 0.0093662823
0.056173235 -0.059415612 0.0087720519
-0.075560503 -0.01743851 0.0071158111
-0.077563249 -0.016769949 0.008003464
-0.079448611 -0.015952513 0.0088300155
0.061081491 -0.057747435 0.010620014
0.059032097 -0.057601236 0.0089963498
0.057056542 -0.057802491 0.0086978041
-0.075705871 -0.015715152 0.0071659666
-0.076870963 -0.014539179 0.0072886525
-0.0789643 -0.013713714 0.0083258115
-0.080656096 -0.012894274 0.0091489488
0.064248517 -0.055856343 0.010912835
0.062403187 -0.055843942 0.010139983
0.06031099 -0.055425599 0.008940788
-0.076827809 -0.012399631 0.0072445106
-0.07843402 -0.01122715 0.0077468278
-0.080714554 -0.010352044 0.0087974211
-0.082952537 -0.0093874829 0.009208356
0.064670153 -0.053939164 0.010409237
0.063178413 -0.053519726 0.0094611533
0.061630186 -0.053332713 0.0089335507
-0.07771486 -0.0088766608 0.0073345043
-0.079950452 -0.0081112441 0.0081681916
-0.082353532 -0.0074338973 0.0089736022
-0.084072955 -0.0062907268 0.0087798033
0.067675516 -0.051697321 0.0091130985
0.066073023 -0.051929824 0.0094720023
0.064023785 -0.051592056 0.0090384474
-0.077627309 -0.0068184682 0.0073999707
-0.079208374 -0.0058919718 0.0076450296
-0.081415378 -0.0051026945 0.0083728945
-0.083679713 -0.0043062912 0.0083492026
0.068868704 -0.049519267 0.01095713
0.067045927 -0.049410071 0.0095039057
0.065145597 -0.049711365 0.00912051
-0.079060815 -0.0033646605 0.0074761473
-0.080789804 -0.0025948079 0.0080467844
-0.083071597 -0.0019950054 0.0084336437
-0.084798828 -0.0008859713 0.0084310351
0.071559042 -0.047606442 0.011323827
0.070086971 -0.04785097 0.010920982
0.067959428 -0.04708758 0.0096255522
-0.078908265 -0.00088730571 0.0075559849
-0.080096446 -8.3520463e-05 0.0078890333
-0.082265325 0.00050101237 0.0090998262
-0.084511258 -8.7172106e-05 0.009462581
0.07245177 -0.045776002 0.011399462
0.070624419 -0.045462213 0.010119304
0.068765432 -0.04513653 0.0093391538
-0.079786211 0.002040786 0.0076277694
-0.081485026 0.0028164824 0.0090331649
-0.082916759 0.0037126064 0.0096140588
0.073037893 -0.044003811 0.010966404
0.071650967 -0.043279689 0.0097660515
-0.079396173 0.0045556254 0.0077138143
-0.080937169 0.0053435406 0.0085183922
-0.082475364 0.0057253181 0.009685684
0.073234655 -0.041620243 0.0095432168
-0.078903869 0.0066095609 0.0077878218
-0.080336697 0.0078749452 0.0081299189
-0.082334466 0.0083429432 0.0091691855
-0.084134139 0.0099077607 0.0087788804
-0.079668298 0.0098963305 0.0078731254
-0.081627823 0.010568822 0.0081522921
-0.083478838 0.01123649 0.0081668021
0.078121766 -0.036771193 0.011798791
0.07638444 -0.036556758 0.010921606
0.07505133 -0.035881799 0.0097593525
-0.079190135 0.012356948 0.0079593752
-0.080842011 0.013237727 0.0080283089
-0.083018638 0.013843386 0.008173801
0.078684777 -0.034992732 0.011865781
0.077317774 -0.034320403 0.010856687
0.075619042 -0.0340885 0.0098269014
-0.078558855 0.015182444 0.0080601564
-0.080152415 0.015703682 0.0085426411
-0.082456164 0.01645015 0.0090169152
-0.083972976 0.017454976 0.0090156095
0.079248399 -0.032441285 0.01145634
0.077970974 -0.032132581 0.01039241
-0.077991158 0.016975686 0.0081277201
-0.079472572 0.017851157 0.0086235218
-0.081862479 0.018634662 0.0097642569
-0.084101759 0.019450109 0.010075233
-0.085417069 0.020552043 0.01008124
0.080610797 -0.030016327 0.011631855
0.078678168 -0.029640894 0.010029668
-0.078729697 0.02044251 0.0088077541
-0.081010468 0.020898346 0.0099550327
-0.085191868 0.021263415 0.010108033
0.081540093 -0.027678607 0.011652465
0.079797506 -0.027125556 0.010131318
-0.077886268 0.022861913 0.0088123092
-0.079927653 0.023508558 0.0099561857
0.08221712 -0.025540059 0.011732987
0.080478765 -0.024973648 0.010212371
-0.077281542 0.025092253 0.0090095615
-0.079335548 0.025573337 0.010116044
0.083006985 -0.023045057 0.011826995
0.081273556 -0.022463068 0.010306927
-0.076543741 0.027554059 0.0091110338
-0.078472003 0.028248057 0.010194398
0.083796866 -0.020550057 0.011920943
0.082068346 -0.019952485 0.010401499
-0.07604216 0.030159445 0.008910398
-0.077672444 0.030632224 0.010224503
0.086337455 -0.018240863 0.012546894
0.084426582 -0.018403877 0.012167524
0.082302108 -0.017593002 0.011229922
0.080913208 -0.016475212 0.011485036
-0.075752124 0.031907056 0.008970621
-0.077034622 0.032461975 0.0099134641
0.086900473 -0.016462404 0.012613886
0.085346527 -0.015849788 0.01245672
0.083039396 -0.015303755 0.011709574
0.081478573 -0.014689364 0.011552298
0.087463483 -0.014684005 0.012680876
0.086029537 -0.013419021 0.01227243
0.084292009 -0.012774909 0.010837595
-0.073727533 0.037535951 0.0091401767
-0.075455859 0.037970167 0.010053878
0.086132482 -0.011700017 0.012494543
0.085187882 -0.01091522 0.011748102
-0.072779857 0.039416436 0.009471437
-0.074986473 0.03978822 0.010676025
0.087355234 -0.0076047205 0.012897396
0.085833803 -0.0073527466 0.012539153
-0.070289314 0.042462304 0.010080593
-0.072186597 0.041831266 0.0099152867
-0.073827632 0.042318065 0.011001336
0.088161506 -0.006294773 0.012955089
0.086315975 -0.0056114397 0.011936125
0.085043013 -0.0043203253 0.010948167
-0.069248453 0.044591948 0.009167932
-0.071190976 0.04430053 0.01031833
-0.073039412 0.044807896 0.011095121
0.091553278 -0.0042389571 0.013091004
0.089132152 -0.0041563525 0.013041907
0.086994387 -0.0034684539 0.012016849
0.085497156 -0.0028857552 0.011002182
-0.068632983 0.046268903 0.0094330525
-0.070600845 0.046403974 0.010481722
-0.072588995 0.046230637 0.011148724
0.092003688 -0.0028162147 0.013144593
0.089885786 -0.0018601641 0.013128956
0.087730303 -0.00097373995 0.012297311
0.085936777 -0.00049938168 0.011085344
-0.067803182 0.048283067 0.0098132147
-0.069776826 0.048783913 0.011001728
0.0899451 0.00057608215 0.013205527
0.08837752 0.0015077611 0.012867323
0.086434714 0.0020353952 0.011507886
-0.066693842 0.050703947 0.0098732021
-0.068652235 0.051244788 0.011387707
0.089028969 0.0036414154 0.013030573
0.08681111 0.0046130251 0.011662318
-0.064370543 0.05251712 0.0095169675
-0.065965302 0.052940387 0.010079789
-0.068214938 0.053525664 0.011467547
0.089291021 0.0061560818 0.013364057
0.087296821 0.0069977441 0.012146681
0.085692257 0.0077078929 0.011333835
-0.063330472 0.054555293 0.0096022021
-0.06501174 0.055320214 0.010653206
-0.067303985 0.055709731 0.01155449
0.089584589 0.0087137865 0.013449383
0.087961383 0.0093422541 0.012615406
0.08621645 0.010034406 0.011617084
-0.06040097 0.057573095 0.0097579733
-0.062122691 0.05690743 0.0098674512
-0.063952439 0.057570629 0.011319642
-0.065913662 0.057421602 0.011637076
0.089913368 0.010370784 0.013507619
0.088748418 0.01154178 0.013407788
0.08663734 0.012437329 0.012083915
-0.059710637 0.059130128 0.009820831
-0.061382085 0.059462663 0.0097954674
-0.062971137 0.059726611 0.010019892
0.089228638 0.013979881 0.013604577
0.087214105 0.01487522 0.012901283
0.085371263 0.015479716 0.01185312
-0.058316387 0.061140478 0.010162901
-0.060396913 0.061811775 0.011032778
-0.062126178 0.061620265 0.010846968
0.090212949 0.016465075 0.013577317
0.087999292 0.017371027 0.01301604
0.085529119 0.017985106 0.012375823
0.083800659 0.019324424 0.011819358
-0.05534168 0.063044377 0.010178027
-0.057291195 0.063309573 0.01086893
-0.059612151 0.06372647 0.011823478
0.088832133 0.019324044 0.013761316
0.08648634 0.020170096 0.013237081
0.084385179 0.020886222 0.012428089
0.082120143 0.02087171 0.012665226
-0.052425455 0.065305546 0.010167175
-0.054324076 0.065032057 0.010535172
-0.056811135 0.065563127 0.011749414
-0.058715753 0.06531579 0.012034678
0.089341737 0.021287162 0.01383287
0.087055065 0.022562977 0.013756796
0.08482042 0.023629399 0.012450707
0.083171122 0.024687642 0.011804906
-0.051417153 0.066827618 0.01023575
-0.053345174 0.067338347 0.011273651
-0.055496644 0.067513369 0.012171295
0.087917618 0.025093378 0.013920127
0.085381582 0.025853185 0.013389154
0.083522364 0.026726266 0.012512214
-0.048355922 0.069014341 0.010368665
-0.050373305 0.068945393 0.010939286
-0.052389171 0.069461226 0.012097687
0.08621487 0.028372826 0.013985169
0.083943941 0.029065428 0.013600738
0.082011066 0.030005181 0.013345498
-0.04513118 0.070886083 0.01049531
-0.047202252 0.070830069 0.010949728
-0.049489889 0.071293153 0.012130392
-0.051481768 0.070850216 0.012360112
0.084867999 0.031539533 0.014054318
0.082399793 0.032343224 0.013943118
0.080597766 0.03289324 0.01400506
-0.044257216 0.072716929 0.010904123
-0.046469864 0.072935887 0.011825168
-0.048454851 0.073608793 0.012509977
0.084953524 0.033665042 0.014121852
0.083121374 0.034506857 0.013858612
0.080870546 0.035582434 0.012456489
0.079173945 0.037004907 0.012100355
-0.041061651 0.074594885 0.010696814
-0.043196026 0.074595511 0.011366061
-0.045689162 0.075204924 0.012618325
0.083840877 0.036953155 0.014199755
0.081459381 0.037737537 0.013339258
0.079208955 0.038620833 0.012551346
0.077343464 0.039953083 0.012152431
-0.038260188 0.076127306 0.010803937
-0.040186979 0.076476879 0.011774342
-0.042276364 0.076615825 0.012461825
-0.044603616 0.076497488 0.012681442
0.08204899 0.040132102 0.014159719
0.079748817 0.040827524 0.013419132
0.077493049 0.041667584 0.012572522
0.07623063 0.042673726 0.01221278
-0.034949552 0.077847354 0.011177934
-0.036872622 0.077884987 0.01148829
-0.03915501 0.078447305 0.012627057
0.080540031 0.043038335 0.014217365
0.078226365 0.044024181 0.013381223
0.076056615 0.044874698 0.012360477
-0.031614471 0.079492956 0.011049789
-0.033870999 0.079472229 0.01153469
-0.036112588 0.080165163 0.012642418
-0.038295723 0.080838218 0.012950218
-0.040441655 0.08222302 0.012947234
0.07893493 0.046094462 0.013649843
0.076390132 0.047207043 0.012856665
0.074319862 0.048278324 0.012345278
-0.028519476 0.080954865 0.011161021
-0.03070588 0.081317589 0.012035291
-0.032935865 0.081843324 0.01269538
-0.035252567 0.082534924 0.013067589
-0.037694879 0.083230875 0.013036999
0.074826427 0.05045696 0.013281182
0.072789729 0.051427878 0.01285473
0.070250615 0.052931674 0.013402977
-0.025388869 0.082499601 0.011609149
-0.027468063 0.082616709 0.012235521
-0.029776908 0.083309546 0.012977458
-0.032004904 0.083723232 0.013173622
0.073342159 0.053224012 0.014395284
0.070994608 0.053978398 0.013851515
0.068947226 0.055440366 0.013452719
-0.019859955 0.083988443 0.011439544
-0.022108389 0.083732598 0.011656561
-0.024274053 0.084173024 0.012566215
-0.02650951 0.084590383 0.013317681
-0.028320288 0.084642552 0.013280657
0.07161995 0.056482717 0.014542668
0.069382757 0.057152882 0.014361692
0.067224048 0.05823018 0.014419514
0.065276764 0.059394453 0.012996268
-0.014636725 0.084897824 0.011579103
-0.016483426 0.085163563 0.011714703
-0.018873904 0.085291639 0.012168032
-0.021305569 0.086045779 0.013160999
-0.023698783 0.086047664 0.013422714
0.065433942 0.061225817 0.013306384
0.063421197 0.062178083 0.012842591
0.061396159 0.063162334 0.012529586
-0.011321117 0.086017273 0.011684458
-0.013341719 0.086440206 0.012018274
-0.015722603 0.086844429 0.01267939
-0.018021198 0.087417468 0.013404251
-0.020104283 0.087713093 0.013550892
0.063534498 0.064318903 0.013468717
0.061183266 0.06508252 0.012917972
0.059324957 0.066285454 0.012581938
0.057092104 0.067526087 0.012572634
-0.0037178907 0.086961463 0.01187588
-0.0053893491 0.087293997 0.011850501
-0.0078000631 0.087393746 0.012002273
-0.010194564 0.087560005 0.012289903
-0.012612588 0.088507026 0.013280406
-0.015060138 0.089006677 0.013598445
-0.017067054 0.089797467 0.013680116
0.059726451 0.068099037 0.013536057
0.057290077 0.069014147 0.013123184
0.054810818 0.069861628 0.012929744
0.052772615 0.070590936 0.01295046
0.051144764 0.071937174 0.012582089
0.0027044308 0.087293372 0.012023161
0.0002591243 0.087677106 0.012125821
-0.0022851413 0.087912567 0.012208759
-0.0045780409 0.088896312 0.012995035
-0.0070636948 0.089421391 0.01321482
-0.0094060004 0.090027153 0.013767299
0.055495553 0.072150782 0.013682253
0.053351544 0.072830431 0.013657507
0.050885517 0.073706307 0.01338178
0.0485298 0.074707195 0.012975826
0.046401508 0.075680338 0.012930143
0.044101916 0.076379895 0.012569136
0.041779131 0.077274077 0.012547218
0.01235611 0.086601555 0.01220774
0.010325851 0.087047875 0.01217821
0.0080866655 0.087681592 0.012450215
0.005706483 0.088082522 0.012511889
0.0031569994 0.088825673 0.013152394
0.00067459093 0.08919885 0.013611329
-0.0016233535 0.089971624 0.013764867
0.046996366 0.07759624 0.013669214
0.044411048 0.078119114 0.013380024
0.041924685 0.078972094 0.013186558
0.039785396 0.079682663 0.013079475
0.037442356 0.080650441 0.012916458
0.034898836 0.081691444 0.012870521
0.032748889 0.082372971 0.012845743
0.030240636 0.083168156 0.012816767
0.027732369 0.083963282 0.012787837
0.02558244 0.084644869 0.01276303
0.023074172 0.085439995 0.012734084
0.020449392 0.0861274 0.012665984
0.018303344 0.0865907 0.012584492
0.016068794 0.087367333 0.012618494
0.013549862 0.088012323 0.012543648
0.011142981 0.088697881 0.012913818
0.0088071106 0.089611389 0.013148778
-0.010381673 -0.076207645 0.0056892075
-0.012183176 -0.075636566 0.005668412
-0.014705271 -0.074837007 0.00563931
-0.016867062 -0.074151643 0.0056143776
-0.019028867 -0.073466346 0.0055894284
-0.021550978 -0.072666846 0.0055603264
-0.00032979803 -0.077016525 0.0058786748
-0.0017709996 -0.07655964 0.005862047
-0.00454525 -0.076019883 0.0058195461
-0.0071048005 -0.075562276 0.0057790773
-0.0091164773 -0.074703895 0.0055125011
-0.011641161 -0.073903494 0.0054833693
-0.014165863 -0.073103167 0.0054542497
-0.016329885 -0.072417133 0.0054292865
-0.018493908 -0.071731098 0.0054043215
-0.021018609 -0.070930757 0.0053751888
-0.023543308 -0.070130423 0.0053460561
-0.025707331 -0.069444396 0.0053210612
-0.028173443 -0.068726525 0.0053406814
-0.030704459 -0.068080902 0.0055067791
-0.032870818 -0.067096889 0.0054909745
-0.035114709 -0.066253461 0.0054691574
-0.037440702 -0.065251894 0.0054504853
0.0053984625 -0.076454796 0.0060182745
0.0031063666 -0.076181047 0.0059778234
0.00094574469 -0.075513579 0.0057021873
-0.0012243977 -0.074850634 0.0055929851
-0.003763143 -0.074095719 0.0053953612
-0.0063134362 -0.073362999 0.0051134322
-0.008392876 -0.072382398 0.0048492076
-0.010925366 -0.071579605 0.0048199957
-0.013457837 -0.070776746 0.004790769
-0.015628537 -0.070088625 0.0047657117
-0.017799225 -0.069400452 0.0047406694
-0.020331712 -0.068597659 0.0047114724
-0.022864183 -0.067794792 0.0046822308
-0.025034888 -0.067106679 0.0046571884
-0.027671859 -0.066369601 0.0047006989
-0.030166641 -0.065801248 0.0048382143
-0.032301735 -0.0650739 0.0049819155
-0.034675393 -0.064388104 0.0051073208
-0.037069444 -0.063381091 0.0051588425
-0.039411455 -0.062913187 0.0053806566
-0.04183276 -0.062010288 0.0054569868
-0.044322945 -0.060692497 0.005444577
0.013999996 -0.0762095 0.0062093865
0.011409488 -0.07591068 0.0061633503
0.0088460036 -0.075614087 0.0059510292
0.0066799028 -0.074951261 0.0058419127
0.0041366466 -0.074254118 0.0054339506
0.0017003507 -0.073194638 0.0050394554
-0.00047035102 -0.072506517 0.005014413
-0.0030028231 -0.071703665 0.0049852161
-0.0054734745 -0.07101991 0.0049536163
-0.0078204777 -0.070574321 0.0049172984
-0.010204582 -0.070057295 0.0048824111
-0.01299992 -0.06933029 0.0048452122
-0.015170608 -0.068642117 0.0048201708
-0.01739444 -0.067618839 0.0048043607
-0.019759312 -0.066789567 0.0047795493
-0.022291783 -0.065986723 0.0047503235
-0.024462489 -0.065298602 0.0047252802
-0.02699496 -0.06449575 0.0046960684
-0.029527446 -0.06369295 0.0046668276
-0.031752437 -0.06281703 0.0046464438
-0.033754349 -0.061955031 0.0046303757
-0.036286842 -0.061152227 0.0046011787
-0.038926899 -0.060550805 0.0047453595
-0.041242119 -0.059966389 0.0049609346
-0.043618269 -0.058944579 0.0050847735
-0.045914687 -0.058206517 0.0054874634
-0.047962494 -0.05716107 0.0054760901
-0.050199863 -0.055998869 0.0054642726
-0.052418355 -0.054955918 0.0054491628
0.019007651 -0.075419366 0.0063406648
0.016793413 -0.075212762 0.0062998002
0.014448101 -0.074622653 0.0058131497
0.011916615 -0.074097157 0.0053296238
0.0096228924 -0.073318705 0.0052046757
0.0074521932 -0.072630584 0.0051796334
0.0050082668 -0.072386354 0.0051350137
0.0025200529 -0.071862862 0.0050980831
-0.036190696 -0.059591047 0.0046514394
-0.038414527 -0.058567774 0.0046356292
-0.040471915 -0.057665434 0.004619645
-0.042835604 -0.056688704 0.0045994092
-0.045368094 -0.055885907 0.0045701824
-0.047422428 -0.055109106 0.0049950769
-0.049844995 -0.054232754 0.0053596394
-0.052322619 -0.053401172 0.0054992838
-0.054316327 -0.052542675 0.0054832585
-0.056057896 -0.051424496 0.0054806769
0.024252487 -0.074506171 0.0064807935
0.021956181 -0.07428012 0.0063387128
0.019822642 -0.073631108 0.0059130015
0.017658757 -0.07303524 0.0055516819
0.015131653 -0.072555207 0.0053458298
0.012487805 -0.07231696 0.0052967509
0.010080809 -0.071872257 0.0052591199
-0.042739473 -0.055127576 0.0046496838
-0.044795692 -0.05407783 0.0046382593
-0.046878472 -0.052860476 0.0046314672
-0.048908141 -0.051978335 0.00461544
-0.051405504 -0.051152397 0.0047127679
-0.053781286 -0.050253015 0.005231888
-0.056203455 -0.04972117 0.0055302177
-0.057895929 -0.04846416 0.0055329567
0.029488171 -0.072995745 0.0066392096
0.027781157 -0.073020704 0.0066020098
0.02551215 -0.072839163 0.0064682411
0.023135219 -0.072262436 0.0058592046
0.020796826 -0.07155557 0.005497586
0.018594092 -0.071387798 0.0054557463
-0.04838885 -0.049835037 0.004692751
-0.050639246 -0.048644148 0.0046815732
-0.053171732 -0.047841355 0.0046523316
-0.055611216 -0.047405869 0.0051474478
-0.057955284 -0.046411574 0.0054411711
-0.059926163 -0.045216415 0.0055900365
-0.061667737 -0.044098169 0.0055874409
0.033054642 -0.071748681 0.006753861
0.03094757 -0.071801268 0.0067072669
0.028525881 -0.071214467 0.0062289955
0.026383793 -0.070673995 0.0056440644
0.024220437 -0.070465662 0.0056043295
-0.050543111 -0.047083028 0.004731833
-0.052653629 -0.045845535 0.0047250818
-0.054655544 -0.044983536 0.0047090137
-0.057188023 -0.044180676 0.0046798028
-0.059581954 -0.043310717 0.0051003275
-0.061813314 -0.042394906 0.0056369808
-0.063821994 -0.041301832 0.0056279153
0.035900503 -0.070273198 0.006860191
0.033976302 -0.070185274 0.00662171
0.031686105 -0.069631822 0.006003839
0.029427603 -0.069163032 0.0057557113
0.027400427 -0.069139317 0.0057131601
-0.054921191 -0.043307669 0.0047551207
-0.056862924 -0.041896299 0.0047573438
-0.058919121 -0.040846493 0.0047459351
-0.061260298 -0.040166624 0.0049314136
-0.063455522 -0.03929653 0.005447547
-0.065651193 -0.038397096 0.0056786817
0.039138578 -0.068393692 0.0069873808
0.037156735 -0.068582013 0.0069392771
0.034809735 -0.068001151 0.0063067377
0.032492783 -0.06730514 0.005878537
-0.058236845 -0.038376957 0.0048368135
-0.060288489 -0.037627101 0.0048162201
-0.062919445 -0.036971092 0.0049947863
-0.06518922 -0.036282033 0.0055871187
-0.067181841 -0.035217162 0.0057443241
0.042540856 -0.066830404 0.0071082944
0.040442657 -0.066904962 0.0069702417
0.038059514 -0.066368669 0.0062486418
0.035810921 -0.066045403 0.0059882822
-0.059830558 -0.036180597 0.0048706802
-0.062324591 -0.034753323 0.0048616054
-0.064666554 -0.033851687 0.0048395088
-0.066942289 -0.032968599 0.0055687474
-0.069063984 -0.031978671 0.0058042547
0.045386713 -0.065354913 0.0072146244
0.043540083 -0.065408379 0.0070623867
0.041150566 -0.065025456 0.0064066658
0.038931508 -0.064571381 0.0061004255
-0.064297184 -0.03184662 0.0049093459
-0.066283628 -0.031010369 0.0049928958
-0.068506889 -0.030025071 0.0056035789
-0.070541717 -0.029132545 0.005860704
0.048232581 -0.063879438 0.0073209694
0.046501778 -0.064024247 0.0072795609
0.044241443 -0.063155048 0.0065076957
0.041789077 -0.063089855 0.0062071932
-0.065780997 -0.028988799 0.004966028
-0.067519709 -0.027774418 0.0049664918
-0.069836795 -0.027028132 0.0054070782
-0.071857668 -0.026443347 0.0059157535
0.049637247 -0.061947074 0.0074106874
0.047425877 -0.061732873 0.0068697585
0.045599181 -0.06111443 0.0063495506
-0.067353375 -0.025572352 0.0050380742
-0.069342189 -0.024519216 0.0051052105
-0.071567222 -0.023934895 0.005916086
-0.073107414 -0.02287697 0.005999337
0.052875344 -0.060067512 0.0075378632
0.05075191 -0.060008429 0.0069940509
0.048456762 -0.059632849 0.0064563183
-0.069165178 -0.022193657 0.0051038759
-0.071016341 -0.021454463 0.0053095929
-0.073142618 -0.020574566 0.0060697328
0.05572119 -0.058592021 0.0076441923
0.05370716 -0.058153514 0.0071859155
0.051554441 -0.058040868 0.0066967253
-0.069191381 -0.020480048 0.0051562572
-0.070544891 -0.019166742 0.0051680114
-0.072606832 -0.018207038 0.0056206724
-0.074502163 -0.017639814 0.0061314432
0.058630899 -0.056080028 0.0077839224
0.056828376 -0.056602694 0.0076383399
0.054802027 -0.055997383 0.0068860408
-0.071941137 -0.015877191 0.0053510778
-0.074112572 -0.015157916 0.0058829198
-0.075751893 -0.014073442 0.0062150275
0.059420787 -0.054586798 0.0078469468
0.05774007 -0.054289836 0.0072643096
0.056131877 -0.054041501 0.0067929039
-0.071930058 -0.014041147 0.005296859
-0.073478974 -0.012742331 0.0053873882
-0.075665288 -0.011921403 0.0062834071
-0.076878466 -0.010744219 0.0062939012
0.062160812 -0.052443769 0.0079716481
0.060501453 -0.052576754 0.0077319881
0.058717422 -0.052035991 0.0069101099
-0.073320255 -0.010328722 0.0053819865
-0.075115517 -0.0094065256 0.0057057515
-0.076665051 -0.009068259 0.0063502742
0.06338001 -0.050540607 0.0080565047
0.061487403 -0.050204583 0.0074806511
0.060028944 -0.04990517 0.0070039313
-0.073221594 -0.0080609526 0.0054541659
-0.074558832 -0.0069407285 0.0054602912
-0.076571979 -0.0063855746 0.0062922044
-0.078164719 -0.0047886004 0.0064505469
0.064586103 -0.048413847 0.0078750523
0.062665783 -0.048114888 0.0071155475
-0.074352808 -0.0047180839 0.0055333525
-0.076126345 -0.0039119269 0.0059374142
-0.077951305 -0.0031126384 0.0065069199
0.067323431 -0.046154782 0.0082761999
0.065480955 -0.04648874 0.0076807505
0.06345892 -0.046615504 0.0071788067
-0.075366229 -0.0018798764 0.0056995666
-0.077531427 -0.00097193156 0.0064000785
-0.078958377 0.00021836483 0.0065883761
0.068265989 -0.044092491 0.0081599215
0.066559456 -0.04437663 0.0077430373
-0.074897848 0.00065597967 0.005687871
-0.076823518 0.0014696415 0.0060471827
-0.078648306 0.0022712525 0.0066584619
0.073963784 -0.042711992 0.0085243182
0.071245581 -0.042114444 0.0084847873
0.069159567 -0.042018823 0.0079428805
0.067461289 -0.041517764 0.0074217729
-0.074586496 0.0027173536 0.0057582036
-0.075933963 0.0038685498 0.0058651492
-0.078097492 0.0047595301 0.0065651797
0.074299723 -0.041233387 0.0085771885
0.072258033 -0.040586162 0.0085536437
0.069919579 -0.039898522 0.0076910965
0.067919217 -0.040071316 0.0074762618
-0.075479589 0.0061836978 0.0058463207
-0.077424966 0.0068384791 0.0064087948
-0.078953974 0.0077461991 0.0068211779
0.074625924 -0.039117627 0.008649569
0.073031925 -0.038321789 0.0081398012
0.071219176 -0.037695389 0.0076201409
-0.074963979 0.0085668573 0.0059309928
-0.076671302 0.0092858467 0.0062503489
-0.078626558 0.0097823096 0.0068911118
0.074839331 -0.037441667 0.0087059122
0.073900901 -0.035858732 0.0084619122
0.072283387 -0.035088256 0.0077234274
-0.076221839 0.01179861 0.0061708447
-0.0781167 0.012394656 0.0069827447
0.076207466 -0.033120055 0.0088686896
0.07461758 -0.033419315 0.008491924
0.072970264 -0.03291855 0.0078051519
-0.075722463 0.014218858 0.0060895216
-0.077508368 0.01481721 0.0070706075
0.076663509 -0.031679519 0.0089229494
0.075302579 -0.031255521 0.008573465
0.073683701 -0.030916454 0.0078822607
-0.07503558 0.01638856 0.006171247
-0.077059336 0.017125055 0.0068513108
0.077674098 -0.028988183 0.0090277288
0.076163635 -0.028753083 0.0084190127
0.07482028 -0.02833225 0.0079863891
-0.074696742 0.01889601 0.0062559834
-0.076504029 0.019647334 0.0069286115
0.078619964 -0.026751811 0.0091170184
0.077012591 -0.026241601 0.008320177
-0.074156426 0.021680577 0.0063535674
-0.075775407 0.02219362 0.0068352455
0.079304025 -0.024591034 0.0091984142
0.077929676 -0.024258826 0.0081786802
-0.073584013 0.023488712 0.006421674
-0.075089946 0.024358893 0.0069167987
0.080102101 -0.022070106 0.0092933569
0.078918807 -0.021673329 0.0082797064
-0.074336842 0.026902109 0.0068863966
-0.076249853 0.02630657 0.007452596
0.080900185 -0.019549122 0.0093883146
0.079720169 -0.019141998 0.0083750347
-0.07355193 0.029436408 0.0069397958
-0.075109735 0.029907942 0.0075882524
0.081312135 -0.017830437 0.0094502401
0.080654338 -0.017448654 0.0084472951
-0.072896577 0.031616122 0.006937772
-0.074907802 0.032334838 0.0076675843
-0.076719753 0.033588577 0.0076676691
-0.07223767 0.033911124 0.0070804907
-0.074348196 0.034818117 0.0077562844
-0.076149702 0.035389207 0.0077354899
0.083180398 -0.012346434 0.0096596126
0.082092188 -0.012068477 0.0086442968
-0.069691688 0.035783682 0.0068847733
-0.071260922 0.036334462 0.0072686365
-0.073066667 0.036987688 0.0078506842
0.084355503 -0.01016519 0.0097521339
0.082453929 -0.0095635727 0.0087294541
-0.068890333 0.038314953 0.0069801165
-0.070520118 0.038793884 0.0074605225
0.086410604 -0.0093257427 0.0088212099
0.084972382 -0.0081395498 0.0096055092
0.08302173 -0.0074556051 0.0088067437
-0.068432413 0.039761461 0.0070346054
-0.069837265 0.040907633 0.0073129982
-0.070868768 0.042125445 0.0070556989
0.084872298 -0.0057497798 0.009899633
0.083706155 -0.0049278992 0.0093164165
0.082490444 -0.0041038794 0.0088989707
-0.067287609 0.043377616 0.0071708197
-0.068930745 0.04346526 0.0074958727
-0.070639811 0.042848643 0.0070829354
0.084435947 -0.0024052537 0.009660149
0.083053671 -0.0016960242 0.0089854281
-0.06623894 0.045432642 0.0072567277
-0.06772735 0.04572393 0.0079844939
0.084788777 -0.00028869035 0.010066664
0.083502434 0.00035020194 0.0090582669
-0.065252118 0.047606718 0.0073449966
-0.066789903 0.047767144 0.0075672967
0.085364692 0.0022460951 0.010157307
0.083894931 0.0029890069 0.0093150157
-0.064078704 0.050005764 0.0076586315
-0.065713219 0.050071742 0.0084120585
0.085788779 0.0046591316 0.010240937
0.084372096 0.0056533339 0.0096956352
-0.061178755 0.051985569 0.007567253
-0.063035108 0.052292824 0.0081208777
0.084763065 0.0075785182 0.010184205
0.083483122 0.0084128315 0.0097073261
-0.060259026 0.054011256 0.0078496523
-0.062140677 0.054236405 0.008474051
0.085223123 0.010386338 0.010405906
0.084058233 0.010712942 0.0098351901
-0.057757948 0.055875015 0.0077604633
-0.059474915 0.056242276 0.0083356174
-0.06117269 0.056399398 0.0087045198
0.084223054 0.013263007 0.0098730987
0.082920521 0.014859342 0.0094943345
-0.056601543 0.05827418 0.0079705138
-0.058526359 0.058488835 0.0085526537
0.084416643 0.015945682 0.0097266277
0.083378457 0.016305851 0.0095488233
-0.053984527 0.060249496 0.0079762079
-0.055759497 0.060322236 0.0084409444
-0.057528757 0.060395807 0.0089058075
0.084559925 0.017522888 0.0096116485
0.08321844 0.018657194 0.010062846
0.081550367 0.019408379 0.010272856
-0.052838702 0.06214935 0.0081844795
-0.054385193 0.062429927 0.0089356881
0.08373154 0.021954954 0.010731685
0.082630634 0.022575522 0.01006023
-0.050087456 0.064385831 0.0081872204
-0.051663242 0.06430313 0.0086058984
-0.053050194 0.06452395 0.0091289775
0.083713271 0.023149608 0.010768215
0.08251714 0.024329737 0.010278846
0.081238106 0.025473075 0.0097865146
-0.048693821 0.066168673 0.0084722238
-0.050646722 0.066271782 0.0092342859
0.082586706 0.026478831 0.010847089
0.081341282 0.02733998 0.010096621
-0.045663733 0.068089969 0.0083961021
-0.047644783 0.067992121 0.008896648
-0.049634278 0.06780012 0.0093031283
0.081163146 0.029662751 0.010247997
0.079717591 0.030729957 0.0099165691
-0.042806156 0.069571555 0.0085028699
-0.044740818 0.069868378 0.0088556847
-0.046557344 0.069543831 0.0090891086
0.081397489 0.032054316 0.0099933594
0.079839818 0.032904096 0.010153205
0.078462742 0.034311034 0.010000489
-0.039998982 0.07173223 0.0086295707
-0.041635331 0.071413532 0.0087516075
-0.043342784 0.071727715 0.0094158296
0.08013925 0.034902878 0.011055286
0.07842835 0.036092114 0.010388389
0.077181965 0.03697186 0.010055411
-0.038546599 0.073409177 0.0088235969
-0.040607948 0.073589534 0.0095495954
-0.04230985 0.073403746 0.0096326284
0.078310028 0.037807561 0.011106023
0.076967619 0.039144021 0.010673917
-0.03543561 0.075190455 0.0091674011
-0.037529781 0.075191081 0.0095397001
-0.039463982 0.074879229 0.0097389584
0.076041587 0.040914562 0.010152963
0.07519421 0.042458583 0.010599582
0.073516689 0.043837167 0.010189421
-0.030359246 0.077032395 0.0089990823
-0.032375142 0.076798454 0.0092217885
-0.034406219 0.076714002 0.0095700389
0.074896932 0.044767682 0.011248342
0.073489033 0.045605201 0.010577063
0.072032869 0.04669499 0.010246103
-0.027501656 0.078513972 0.0091058649
-0.02921618 0.078324437 0.0091885198
-0.031306498 0.078489415 0.0099134231
0.07370045 0.047458604 0.011306002
0.071893021 0.04886356 0.010739044
0.070143007 0.049946859 0.010306291
-0.023920516 0.079766147 0.0092209708
-0.025937349 0.079898439 0.009539444
-0.028269531 0.079986617 0.010010611
-0.029977778 0.079797506 0.010093407
0.071874768 0.05075594 0.011118787
0.070337772 0.05195535 0.010658463
0.068570644 0.053363308 0.010378352
-0.020504246 0.081335835 0.009342405
-0.02285709 0.08143165 0.0097955093
-0.024783492 0.081397854 0.010003538
0.069734 0.054131847 0.011427636
0.068560325 0.055130657 0.010718684
-0.01508214 0.082534984 0.0094951531
-0.017335052 0.082593948 0.0095601119
-0.019554645 0.082940772 0.010079416
-0.021339823 0.082871221 0.010372736
0.066593558 0.058276542 0.011155185
0.064412862 0.059248079 0.011017379
0.062239118 0.060297467 0.010791174
0.060493782 0.060963959 0.010440954
-0.010053858 0.083328448 0.0096269641
-0.011761234 0.083680436 0.0097682131
-0.013931192 0.083991028 0.010065085
-0.016492005 0.083984464 0.010385495
-0.018329766 0.084030487 0.010472788
0.062445778 0.061791997 0.011508922
0.060490474 0.062625699 0.011129058
0.05863829 0.063685067 0.01070788
-0.006110935 0.084465951 0.0097462675
-0.0085256584 0.084791437 0.010089701
-0.01072063 0.08512821 0.010446708
-0.012733778 0.085426711 0.010635358
0.058468096 0.065216906 0.011196337
0.056448966 0.066444747 0.011024431
0.054349318 0.067696348 0.010768156
0.053051934 0.068893835 0.010527287
0.0042112437 0.084376894 0.0099637667
0.0017230444 0.084900446 0.0099268667
-0.00074875308 0.085329562 0.010030345
-0.0030124665 0.085451402 0.010206765
-0.0053270347 0.08597789 0.010453033
-0.0073893345 0.086197503 0.010523028
0.054569263 0.068846159 0.011558902
0.052284319 0.069768667 0.011538667
0.050297603 0.071572028 0.011051684
0.047870971 0.072302558 0.010665088
0.045665108 0.073225103 0.010503576
0.043418385 0.074176066 0.010485036
0.041076399 0.075077638 0.010462925
0.013942704 0.083679385 0.010149847
0.012495576 0.084138155 0.010133142
0.0097099086 0.08468014 0.01009049
0.0072097732 0.084935963 0.010267411
0.004814167 0.085649103 0.010561794
0.0022983695 0.086238742 0.010681004
-8.2328668e-05 0.086567678 0.010940579
-0.0023581551 0.086892821 0.010902069
0.049848825 0.072720267 0.011577942
