# .PCD v0.7 - Point Cloud Data file format
VERSION 0.7
FIELDS x y z
SIZE 4 4 4
TYPE F F F
COUNT 1 1 1
WIDTH 1271
HEIGHT 1
VIEWPOINT 0 0 0 1 0 0 0
POINTS 1271
DATA ascii
-0.056508899 -0.05714196 0.014581898
-0.054443918 -0.056612089 0.014561597
-0.052429326 -0.056033455 0.013761181
-0.050806329 -0.055745006 0.013527614
0.070450738 -0.018912619 0.01212119
0.072250091 -0.018186187 0.012677338
0.074106805 -0.017450649 0.013066347
-0.053690504 -0.059091508 0.014654139
-0.051610526 -0.058477528 0.014297138
-0.049347419 -0.058036659 0.013612924
0.069328122 -0.022723762 0.012263946
0.070674554 -0.021399226 0.012380865
0.072664835 -0.020640455 0.013185963
-0.050810397 -0.060925625 0.014721988
-0.04845738 -0.060276806 0.01369646
-0.046445675 -0.05986065 0.013680434
0.069326855 -0.024709731 0.012338208
0.071160838 -0.023922201 0.013197818
0.072630316 -0.022953628 0.013272457
-0.050239556 -0.063115895 0.014247806
-0.047808874 -0.062410984 0.013776096
-0.045379285 -0.061770841 0.013751604
-0.043677405 -0.061934307 0.013757288
0.067746863 -0.027541647 0.012444465
0.06946604 -0.026787726 0.012916218
0.07145749 -0.025888598 0.013382443
-0.047002725 -0.064808078 0.013865513
-0.044560749 -0.064144745 0.013840133
-0.04231704 -0.063852422 0.013828681
0.066506624 -0.031349584 0.012587145
0.068100438 -0.030007644 0.012870134
0.070099011 -0.029027944 0.013409213
0.071487144 -0.02768491 0.013449616
-0.043732047 -0.066546477 0.014596891
-0.04130413 -0.065867573 0.013987163
-0.03920494 -0.065394409 0.01388558
0.066264749 -0.033297349 0.012751004
0.068694338 -0.032408811 0.013543542
0.07032913 -0.03151805 0.013593211
-0.040614873 -0.067944042 0.014481612
-0.038172543 -0.067256697 0.013954965
-0.036367405 -0.067226894 0.013953418
0.064807788 -0.036164317 0.012767572
0.066795878 -0.035657626 0.013281856
0.069068737 -0.034801938 0.013716308
-0.037415978 -0.069746502 0.014047861
-0.035280347 -0.069098495 0.014023103
-0.032944005 -0.069111012 0.014023045
0.061858859 -0.040788557 0.012941169
0.063229904 -0.039817579 0.012904558
0.065306269 -0.038622443 0.013126192
0.067540534 -0.038023796 0.013737062
0.07005509 -0.037333749 0.013810727
0.071728319 -0.036122687 0.013765045
-0.034523774 -0.0715883 0.014116028
-0.032032199 -0.070832312 0.014087156
-0.029705895 -0.070385367 0.014069897
0.059659868 -0.043786753 0.013053804
0.061548263 -0.042609446 0.013009334
0.063898861 -0.041758019 0.013249889
0.066080607 -0.040866576 0.013843698
0.0681732 -0.040075235 0.013913667
0.069892965 -0.039000731 0.013873084
-0.031275641 -0.073322117 0.014180036
-0.028784068 -0.072566129 0.014151195
-0.026722575 -0.072242729 0.014138609
-0.024735216 -0.072243996 0.01413818
0.058079552 -0.047115169 0.013178634
0.059692845 -0.045901231 0.013216233
0.061894652 -0.044915669 0.013495761
0.064411812 -0.044077378 0.01399754
0.066238984 -0.042688593 0.014011877
-0.027990051 -0.074908197 0.01512808
-0.02587314 -0.074316137 0.014771894
-0.023477739 -0.073746011 0.014194021
-0.020924607 -0.073483378 0.014183596
0.056313816 -0.050046597 0.013288666
0.058109354 -0.048919071 0.013246074
0.060353722 -0.048122734 0.013966288
0.06263832 -0.047295116 0.014184949
-0.025212418 -0.076369897 0.015293254
-0.022734359 -0.075644553 0.015098786
-0.020258898 -0.075011156 0.01435174
-0.018289873 -0.074691102 0.014228124
-0.016484713 -0.074661359 0.014226576
0.052211188 -0.053816631 0.013430602
0.053938165 -0.052737616 0.013389863
0.056239989 -0.051803365 0.013437746
0.058543306 -0.051009063 0.013991253
0.06073365 -0.050136194 0.014291644
-0.01946163 -0.077227466 0.015323935
-0.017368205 -0.076812968 0.014640797
-0.014931863 -0.076299109 0.0142874
-0.012289529 -0.076185472 0.014282541
-0.010281007 -0.075886801 0.01427089
0.046313051 -0.058714248 0.013615144
0.047860719 -0.058050379 0.013589958
0.050172146 -0.05670153 0.013538956
0.052395668 -0.055703092 0.013501076
0.054674059 -0.054995477 0.014007808
0.056858648 -0.053995449 0.014353506
-0.016471704 -0.07854227 0.014371668
-0.013891117 -0.078363523 0.014364367
-0.011628367 -0.077849582 0.014344603
-0.0091368062 -0.077093542 0.014315717
-0.0066579152 -0.076807566 0.014304433
-0.0050053191 -0.076616913 0.01429691
0.039842792 -0.063008472 0.013777266
0.041266527 -0.062576406 0.013760765
0.043294072 -0.061572704 0.013722748
0.045654967 -0.060452126 0.01376366
0.0482953 -0.059634935 0.014194956
0.050650463 -0.058743838 0.014315716
0.052855212 -0.058097575 0.014591195
0.054673843 -0.057287816 0.014560486
-0.0085963849 -0.078872025 0.014382107
-0.0059568146 -0.078237548 0.014357751
-0.0038611158 -0.077823654 0.014341753
-0.0014687047 -0.077253088 0.014319837
0.0012300949 -0.076667309 0.014297284
0.0032449563 -0.076133631 0.014276855
0.0059653572 -0.075618938 0.014256945
0.0077450364 -0.075078897 0.014236331
0.032660656 -0.067518637 0.013947629
0.034920201 -0.066638768 0.0139142
0.036879204 -0.065683641 0.01387802
0.039316561 -0.064992495 0.014051696
0.041681707 -0.064292796 0.014325204
0.044086732 -0.063502252 0.014607778
0.046519652 -0.062728018 0.01476589
0.048853375 -0.061854053 0.014732648
0.051374294 -0.060868107 0.014695136
-0.0028821616 -0.079339504 0.014398192
-0.00053157419 -0.079191394 0.01447548
0.0018504442 -0.078739725 0.014708195
0.0039835875 -0.078092441 0.014683482
0.0064996015 -0.077386059 0.014385406
0.0089973183 -0.076641336 0.014294433
0.011097702 -0.076109953 0.014274048
0.013732601 -0.075593017 0.014254079
0.016224155 -0.074836977 0.014225237
0.018359784 -0.074188963 0.014200479
0.02085134 -0.073432915 0.014171608
0.0233429 -0.072676875 0.014142751
0.025834471 -0.071920894 0.014113865
0.028353982 -0.071000986 0.014078872
0.030471964 -0.07019861 0.014125329
0.032851722 -0.069283143 0.014213695
0.035224997 -0.068578057 0.014486996
0.037607178 -0.067884885 0.014694002
0.040022869 -0.067272805 0.014837287
0.042148009 -0.066541463 0.014909489
0.0095377434 -0.078419819 0.014360808
0.011905375 -0.077895634 0.014340639
0.016743109 -0.076816276 0.01518861
0.019208534 -0.076044306 0.015270365
0.021689683 -0.075291485 0.015241589
0.02385539 -0.07468202 0.014995921
0.026359014 -0.073946193 0.014856597
0.028778635 -0.073140413 0.01515945
-0.035369039 0.052860525 0.0084625557
-0.033224493 0.053511303 0.0084377024
-0.030598057 0.054503303 0.008399982
-0.028686481 0.055278398 0.0083705354
-0.026184479 0.056037545 0.0083415536
-0.02367454 0.057091758 0.0083015282
-0.021646479 0.057804693 0.0082743857
-0.019144477 0.05856384 0.008245388
-0.016642496 0.059323043 0.0082164062
-0.014538039 0.059738692 0.0082003493
-0.011887418 0.060375795 0.0081758872
-0.0092769014 0.060777828 0.0081602372
-0.0070761926 0.061757669 0.0081230579
-0.0049409838 0.062353529 0.0081002675
-0.0024857954 0.062838472 0.0080815488
-0.044151295 0.047074836 0.0086809965
-0.041950583 0.048054677 0.008643833
-0.03955289 0.049169712 0.0084014367
-0.037348319 0.050403643 0.0083047207
-0.035201531 0.051055074 0.0082798516
-0.032696936 0.051815055 0.0082508232
-0.030192344 0.052575029 0.0082218088
-0.028052306 0.053287737 0.0080278432
-0.025548847 0.054079033 0.0079142712
-0.023041656 0.054839846 0.0078852409
-0.020892624 0.055491921 0.0078603402
-0.018385669 0.056324534 0.0076409676
-0.015878236 0.057013489 0.0078022052
-0.013729202 0.05766556 0.0077773044
-0.011222004 0.058426313 0.0077482741
-0.0087148128 0.059187122 0.0077192141
-0.0065657827 0.059839197 0.0076943133
-0.0040661772 0.060550142 0.0077922298
-0.0015856976 0.061161049 0.008144049
0.0005588698 0.061811771 0.0081191966
0.0030608538 0.062570974 0.008090199
0.0055628326 0.063330173 0.0080612162
0.0072006476 0.063593008 0.0080509949
-0.045184128 0.0447958 0.0081660245
-0.043679576 0.045511935 0.0080721695
-0.041545618 0.046221461 0.0078783659
-0.039050065 0.047040921 0.0076803546
-0.036537658 0.047803286 0.0076512317
-0.034384176 0.048456769 0.0076262834
-0.031871751 0.049219076 0.0075971903
-0.029362977 0.050010696 0.0074835811
-0.027212352 0.050693579 0.0073741022
-0.024693435 0.051397227 0.0075140111
-0.022181025 0.052159589 0.0074848877
-0.020027524 0.052813016 0.0074599399
-0.017515115 0.053575378 0.0074308468
-0.015002707 0.05433774 0.0074017085
-0.012849206 0.054991171 0.0073767607
-0.010430377 0.055803485 0.0073458245
-0.0078969253 0.056515455 0.0070106443
-0.0056708851 0.057169322 0.0072935964
-0.0031584781 0.057931688 0.0072644879
-0.00065214623 0.058661055 0.0073199822
0.0014677347 0.059149429 0.0077181915
0.0039521568 0.059811469 0.0079429895
0.0064567518 0.060571447 0.007913975
0.0087250136 0.06140282 0.0081325043
0.011310654 0.06175825 0.0081186015
0.012973322 0.062067751 0.0081066312
-0.047650151 0.041225277 0.0086503811
-0.045326408 0.042258129 0.0080425991
-0.042953081 0.043114498 0.0078280736
-0.040799584 0.043767929 0.0078031262
-0.038412359 0.044595685 0.0076806247
-0.035941102 0.045376923 0.0071413959
-0.03366461 0.046170108 0.0070444685
-0.031524304 0.046939772 0.0066816146
-0.029001471 0.047705293 0.006652351
-0.026478637 0.04847081 0.0066231471
-0.024316197 0.049126949 0.0065980889
-0.021789424 0.049803488 0.0068223402
-0.019268248 0.050538432 0.0068776682
-0.017108241 0.051233966 0.0067399284
-0.014585256 0.052079644 0.0064853141
-0.012062422 0.052845169 0.0064561097
-0.009899999 0.05350136 0.0064310515
-0.0073771691 0.054266881 0.006401788
-0.0048605115 0.054990403 0.0064853448
-0.0023905248 0.055452053 0.007273606
0.00011683866 0.056183357 0.007329043
0.002270346 0.056836788 0.0073040952
0.0047827601 0.057599153 0.0072749872
0.0072951661 0.058361512 0.0072458638
0.0094646839 0.059367999 0.0076365937
0.011983989 0.059908811 0.0076157656
0.014268843 0.060597979 0.0076154438
-0.05341826 0.036460694 0.009080085
-0.051894985 0.037443072 0.0090429923
-0.049736153 0.038716186 0.0088614337
-0.047422975 0.039564434 0.0083257975
-0.044703331 0.040138677 0.0078627886
-0.042223219 0.040707767 0.0075842943
-0.040097456 0.041468181 0.0072217998
-0.037966341 0.042231519 0.0068591731
-0.035443507 0.042997036 0.006829924
-0.032920673 0.043762561 0.0068007046
-0.030758239 0.0444187 0.0067756469
-0.028235402 0.045184217 0.0067464127
-0.025712568 0.045949738 0.0067171939
-0.023550132 0.046605874 0.0066921362
-0.021027293 0.047371399 0.0066628871
-0.018504458 0.04813692 0.0066336677
-0.01634202 0.048793055 0.00660861
-0.013819191 0.049558572 0.0065793758
-0.011296349 0.050324094 0.0065501565
-0.0091339154 0.050980233 0.0065250993
-0.0066110771 0.051745754 0.0064958502
-0.0040882477 0.052511275 0.0064666308
-0.0017660797 0.053253349 0.006652771
0.00074405386 0.053690869 0.0069217128
0.0030552335 0.054418098 0.0071441745
0.0054366668 0.055447169 0.0073552905
0.0079490803 0.056209534 0.0073261671
0.010102583 0.056862965 0.0073012197
0.012614985 0.05762532 0.0072721262
0.015127391 0.058387686 0.0072429879
0.017387744 0.058872413 0.0081480471
0.019496782 0.058585603 0.0082352394
-0.055269033 0.033558417 0.0091890451
-0.053582482 0.03475289 0.0091439765
-0.0512111 0.035279676 0.0085900174
-0.048839748 0.036299877 0.0081612784
-0.046600182 0.03702601 0.0077230521
-0.044177704 0.037817158 0.0072925789
-0.041525133 0.038398113 0.00700338
-0.039362691 0.039054252 0.0069783377
-0.037200272 0.039710443 0.0069532795
-0.03467742 0.040475909 0.0069240159
-0.032154586 0.041241433 0.0068948115
-0.030109633 0.041960325 0.0068674432
-0.027855521 0.043070443 0.0068253856
-0.024933664 0.043904595 0.0067934887
-0.022893498 0.044444937 0.0067727966
-0.0011597364 0.050646342 0.00653568
0.0013631004 0.051411863 0.006506416
0.003885929 0.052177377 0.0064772265
0.0059942873 0.053196289 0.0067465012
0.0085120229 0.053759962 0.0068171686
0.010895593 0.054444306 0.0071412683
0.013377898 0.055114631 0.0073658191
0.015890302 0.055876993 0.0073366957
0.018258115 0.056560993 0.0076441262
0.020561839 0.057225432 0.008185776
0.022774426 0.057434522 0.0082774814
-0.057778537 0.030768404 0.0092939669
-0.055407379 0.031779051 0.0091126543
-0.053036101 0.032501746 0.0085608903
-0.050485983 0.033047594 0.0080394857
-0.048048306 0.033985656 0.0073923077
-0.045914169 0.034706138 0.0071424795
-0.043391332 0.035471659 0.0071132304
-0.040868498 0.03623718 0.007084026
-0.038871579 0.037067901 0.0070524784
-0.036819115 0.037937917 0.0070194397
-0.034239672 0.039035302 0.0069777844
-0.031716838 0.039800826 0.0069485353
0.0067049856 0.050672639 0.0065327995
0.009227816 0.05143816 0.0065035354
0.011750652 0.052203678 0.006474331
0.014106504 0.052870933 0.0068127019
0.016545251 0.053287402 0.0073332526
0.018806698 0.05401979 0.007405411
0.021249322 0.05496433 0.0077031031
0.023486814 0.05566996 0.0081613343
0.025713759 0.056397546 0.0083155492
-0.060851309 0.026663102 0.0094482014
-0.05929995 0.027810015 0.0094049377
-0.057113823 0.028707836 0.0090134405
-0.054826371 0.029572889 0.0085874405
-0.052216109 0.029918162 0.008050805
-0.049824737 0.030746106 0.0073539857
-0.047310535 0.031528927 0.0072615836
-0.045374993 0.032607902 0.0072208
-0.042953581 0.034031056 0.0071669994
0.012516742 0.049682546 0.0065683788
0.014679165 0.050338745 0.0065433206
0.017174408 0.051036343 0.0067042615
0.019502817 0.051651839 0.0073118252
0.021973038 0.052630119 0.0074566221
0.024495954 0.053520188 0.0075227944
0.026760915 0.054255828 0.0080826636
0.029169852 0.054782506 0.0083750924
0.031442437 0.054603156 0.0083812512
-0.062748872 0.023486571 0.0095674256
-0.060960352 0.024639348 0.0094405077
-0.058680795 0.025312228 0.0088310353
-0.056225579 0.026159866 0.0084652267
-0.05377451 0.027028644 0.0080151893
-0.051691562 0.027572488 0.0075106579
-0.049185488 0.028277993 0.0073835975
-0.047170915 0.02934221 0.0073433165
0.017968083 0.048583131 0.0066081788
0.02050327 0.049478892 0.0066741491
0.022646444 0.050376661 0.0069688885
0.025124716 0.050818056 0.007237656
0.027401846 0.051535279 0.0074962433
0.029864434 0.05220554 0.007720761
0.032102175 0.052921712 0.0083439024
0.034088187 0.053390406 0.0084259566
-0.064382583 0.019869948 0.0097030485
-0.062703118 0.021378959 0.0095628351
-0.060519047 0.022379441 0.009036486
-0.057975069 0.022886818 0.0085879993
-0.05557872 0.023832714 0.0078014927
-0.053095937 0.024659742 0.0075198477
-0.051099006 0.025490409 0.0074883001
-0.049350344 0.026582962 0.0074470169
0.02114756 0.047187723 0.0066596055
0.02330998 0.047843914 0.0066345474
0.025472419 0.04850005 0.0066094897
0.027899446 0.04908976 0.0070871813
0.030677168 0.049786948 0.0075608282
0.033117682 0.050731204 0.0077978396
0.035398543 0.051353686 0.0083767157
0.03781588 0.05140062 0.0084994556
-0.065518506 0.017184576 0.0098037189
-0.064189389 0.018270632 0.0097627956
-0.061940245 0.019262025 0.0089746723
-0.059376284 0.019901915 0.008427009
-0.057347842 0.020568397 0.0078406101
-0.054852702 0.021373147 0.0076430989
-0.052682236 0.022326719 0.007606965
0.024076033 0.045322839 0.0067285942
0.026238475 0.045978975 0.0067035365
0.028761299 0.046744492 0.0066742878
0.03136291 0.04752031 0.0072879503
0.033843488 0.048397336 0.0076119937
0.03627979 0.049042068 0.0079208734
0.038633022 0.04956796 0.0085677663
0.040445723 0.049597848 0.0085662156
-0.065563954 0.015498874 0.0098667499
-0.063656218 0.01595642 0.0092654414
-0.061257049 0.016848521 0.0086269416
-0.058870349 0.01753021 0.0078878654
-0.056609467 0.018086554 0.0077664545
-0.054274559 0.018952353 0.0077335006
-0.052503478 0.020119155 0.0076894471
0.024854967 0.043277636 0.0068048895
0.027004555 0.043457907 0.0067976434
0.029527383 0.044223424 0.0067683794
0.03220696 0.045295496 0.006977811
0.034478251 0.045793142 0.0074947802
0.036759902 0.046540074 0.0076807542
0.039067317 0.047191024 0.008122853
0.041366559 0.047959231 0.0086272601
0.043075539 0.047795128 0.0086329905
-0.066966973 0.011673622 0.010010118
-0.065421008 0.012955253 0.0098367408
-0.062973663 0.013535365 0.0089388378
-0.060607802 0.014469538 0.0080693979
-0.058115259 0.015269423 0.0078721438
-0.056266066 0.016092824 0.0078409202
-0.054730069 0.017083313 0.007803489
0.027995804 0.041922975 0.0068547581
0.030184017 0.042062484 0.0068490254
0.03270686 0.042828009 0.006819821
0.034969278 0.043566849 0.0068917079
0.037343077 0.043973938 0.0075036264
0.040065832 0.044901114 0.0078182053
0.042250827 0.045658711 0.0084628863
0.044556499 0.04608383 0.0086966138
-0.066903897 0.0096307499 0.01008648
-0.064749464 0.010541587 0.0094681587
-0.062257819 0.0112292 0.008570008
-0.059872024 0.011982828 0.0079954099
-0.057934891 0.01312136 0.0079524107
0.031213913 0.040486813 0.0069076982
0.033508603 0.040425044 0.0069094552
0.035635356 0.040963069 0.0068888101
0.038128834 0.041688226 0.0069861887
0.040658336 0.042528637 0.0077528199
0.043201558 0.043402135 0.0077965045
0.045471936 0.043861467 0.0086960848
0.047237389 0.044376608 0.0087597882
-0.068042099 0.0068611228 0.010190316
-0.066064395 0.0074548768 0.0097006559
-0.063741416 0.0082490761 0.0089699002
-0.061726071 0.0087997084 0.0082149729
-0.059583806 0.0094150752 0.0080913827
0.034850378 0.038364716 0.0069861612
0.036401428 0.038441997 0.006982917
0.038924262 0.039207518 0.0069536529
0.041643362 0.040203225 0.0075161657
0.043964464 0.040891442 0.0078901974
0.046257932 0.041553333 0.0083318902
0.048430227 0.042286407 0.0088376468
-0.069085404 0.003228606 0.010326373
-0.067889772 0.0043903077 0.010199265
-0.065544896 0.0050051855 0.009412352
-0.063113369 0.005859992 0.008336341
-0.060972147 0.0065352996 0.0081993965
-0.059749413 0.007693056 0.0081557995
0.037225392 0.036594041 0.007051805
0.039580911 0.037046585 0.0070342841
0.042103756 0.03781205 0.0070050796
0.044496421 0.038423873 0.0074819755
0.047032773 0.039251804 0.0081326906
0.049249109 0.039852399 0.0087140398
0.051230796 0.039970726 0.0089235492
-0.06878525 0.0012130738 0.010401663
-0.067225985 0.0019628096 0.0098172901
-0.064749062 0.002612619 0.0088139772
-0.062463898 0.0034364264 0.0083156014
-0.060941976 0.0047087776 0.0082676532
0.040765256 0.035308011 0.007099025
0.042869825 0.035290975 0.0070991269
0.04509753 0.036040775 0.0071475338
0.047314305 0.036579706 0.0077427113
0.049952116 0.037542954 0.0083474927
0.052267473 0.038100723 0.0089932261
0.053914264 0.037820142 0.0090033114
-0.068630964 -0.0011191881 0.010397833
-0.066555433 -0.00047875248 0.0094636893
-0.064196758 0.00012287451 0.0086708367
-0.062228896 0.0011713714 0.0084002186
0.044121787 0.03311402 0.0071802312
0.045798324 0.033426102 0.0071681757
0.048243254 0.034303889 0.0075636059
0.050810091 0.035133932 0.0081038307
0.052949261 0.035851482 0.0088770166
0.054677751 0.036335353 0.0090586506
-0.069882661 -0.0044254172 0.010612749
-0.068322495 -0.0035751686 0.010247026
-0.065835968 -0.0029597059 0.0093338666
-0.063586839 -0.0020537823 0.0085211452
0.046629637 0.031430516 0.0072425827
0.048977781 0.032030679 0.0072195577
0.051620349 0.032669853 0.0080289617
0.053962469 0.033560902 0.0085257571
0.055958021 0.034059044 0.0091434475
-0.069588885 -0.0066769253 0.010696854
-0.067580804 -0.0059444695 0.01000186
-0.065099634 -0.0053150114 0.0090982988
-0.063250922 -0.004619563 0.0086170062
0.047613513 0.030043269 0.0072942078
0.049794056 0.029603479 0.0073100892
0.052396424 0.03030654 0.0077502048
0.054739341 0.031233631 0.0082486756
0.056991428 0.031762425 0.0090622716
0.058944363 0.031544246 0.0092367493
-0.068892278 -0.0090841912 0.010586541
-0.066735581 -0.008281556 0.009898426
-0.064535797 -0.0077984012 0.0089362944
-0.062892228 -0.0072249514 0.0087143295
0.051045015 0.027263278 0.0073973257
0.053181101 0.027981423 0.0075519048
0.055371039 0.028595559 0.0082041994
0.057707161 0.02947198 0.0088141859
0.059611473 0.029991195 0.0092946561
-0.069748007 -0.012576882 0.010917483
-0.06828247 -0.011386937 0.010605809
-0.065809712 -0.010793671 0.0096267685
-0.063802719 -0.010058043 0.0088204918
0.052138355 0.025515776 0.0074623828
0.053689402 0.025593061 0.0074591385
0.056057759 0.026230531 0.0079350639
0.058703169 0.027117005 0.0087590283
0.060753558 0.027645925 0.0093820579
-0.069205321 -0.01436279 0.010984128
-0.06752 -0.013775081 0.010461411
-0.065198451 -0.012926861 0.0094840145
-0.063506477 -0.012328366 0.008905299
0.054346051 0.023432128 0.0075397692
0.056713019 0.024074104 0.0080155386
0.059161909 0.024803638 0.0085880943
0.061431818 0.025233537 0.0092901411
0.063259616 0.025051393 0.0094784619
-0.068554118 -0.016505871 0.011064091
-0.066717379 -0.016090712 0.010476325
-0.064477116 -0.015423493 0.0093547935
-0.063022316 -0.014698965 0.0089937961
0.055212516 0.021098856 0.007626785
0.057404153 0.0216983 0.007746791
0.059706829 0.022071851 0.008447065
0.062031373 0.022965642 0.0090564061
0.063693739 0.02362272 0.0095317746
-0.067960307 -0.019316534 0.011169036
-0.066176146 -0.018608287 0.010570332
-0.063754849 -0.017925546 0.009225809
-0.062334731 -0.017479895 0.0090975994
0.056238588 0.018499369 0.0077237464
0.0580406 0.019046178 0.0077028647
0.060319334 0.019640215 0.0084305862
0.062957667 0.020557042 0.0092177205
0.064661562 0.020951545 0.0096314102
-0.06763301 -0.021785429 0.011261272
-0.065411292 -0.020913955 0.01039423
-0.063119724 -0.020078253 0.0091949655
-0.061678112 -0.019640772 0.0091782296
0.056895219 0.01633843 0.007804377
0.058697246 0.01688524 0.0077834958
0.060973946 0.017485954 0.0085110134
0.06365066 0.018227892 0.0090663685
0.065570652 0.018730642 0.0097142337
-0.069002025 -0.02474387 0.010927468
-0.067108564 -0.024197597 0.010767595
-0.064717665 -0.023405246 0.010132832
-0.062353648 -0.022599323 0.0092890123
-0.061240349 -0.021081436 0.0092319986
0.057912242 0.014286876 0.0078808172
0.059463311 0.014364107 0.0078775436
0.061778802 0.014998358 0.0084787253
0.064279705 0.015853466 0.0091073243
0.06622187 0.016587568 0.0097941961
-0.068156175 -0.027242774 0.010798313
-0.066431634 -0.026687603 0.010443557
-0.06401334 -0.025905102 0.0099133626
-0.061587587 -0.025120402 0.0093831187
0.060292121 0.011960461 0.0079672439
0.062612176 0.012525271 0.0083625084
0.065132253 0.013400692 0.0094847633
0.066702023 0.01423658 0.0098819835
-0.065777719 -0.028839583 0.01052386
-0.063358054 -0.028061586 0.0099938521
-0.060930949 -0.027281333 0.0094637498
0.061246429 0.0097914878 0.0080481041
0.063323796 0.010399961 0.0082749873
0.065769143 0.011032438 0.0095016789
0.067616902 0.011354279 0.0099895224
-0.065014809 -0.03135027 0.010617568
-0.062593564 -0.030577466 0.010087692
-0.060164876 -0.02980241 0.0095577966
0.062012494 0.0072704153 0.0081421807
0.064089075 0.0078814588 0.0083689988
0.066542804 0.0086316504 0.0092910398
0.068392545 0.009444057 0.01006076
-0.064251907 -0.033860903 0.010711231
-0.06178391 -0.03309584 0.010431873
-0.059398811 -0.032323483 0.0096519031
0.062778577 0.0047493419 0.0082362574
0.064854369 0.0053629507 0.0084629795
0.067409396 0.0061897472 0.0094898827
0.069152281 0.0069438051 0.010154055
-0.065293163 -0.036554817 0.011312556
-0.063597985 -0.036012944 0.010791535
-0.061085563 -0.035250574 0.010762442
-0.058742169 -0.03448442 0.0097325342
-0.057081681 -0.034767266 0.0097426912
0.063435204 0.0025884083 0.0083169034
0.065481395 0.003191157 0.0086274054
0.067974105 0.0038879011 0.0096848905
0.069912016 0.0044435556 0.010247364
-0.064544044 -0.038695734 0.011892783
-0.062756918 -0.03815344 0.011872075
-0.060260661 -0.037666868 0.010919306
-0.057976104 -0.037005488 0.009826581
-0.05653448 -0.036568064 0.0098098908
0.064117618 -8.9213347e-05 0.0084168445
0.066188239 0.00064837356 0.0088890875
0.06858252 0.0015014876 0.0097858673
0.070205815 0.002191995 0.010331471
-0.061490409 -0.040265854 0.011950739
-0.059607986 -0.040178679 0.011331222
-0.057154804 -0.039520603 0.010254011
-0.055407997 -0.03897981 0.0098998072
0.063384198 -0.0037208849 0.008552786
0.064606942 -0.0025631273 0.0085092187
0.066894382 -0.0018903041 0.0091506327
0.069429658 -0.00093203265 0.010162538
0.070965551 -0.00030824984 0.010424765
-0.060739651 -0.042222686 0.012023725
-0.058791075 -0.042403851 0.01169647
-0.056445766 -0.041669872 0.010667753
-0.054751378 -0.04114069 0.0099804373
0.063821942 -0.0051614903 0.0086065251
0.065481991 -0.0047331187 0.008772064
0.06766098 -0.003938261 0.0094604958
0.070028499 -0.0033177107 0.010287335
-0.058131017 -0.04481212 0.012119908
-0.055948745 -0.044271562 0.011348668
-0.053624894 -0.043552432 0.010070308
-0.051854949 -0.044195477 0.010093941
0.064420722 -0.0079955906 0.0087123755
0.066258125 -0.0071796332 0.009056651
0.068799533 -0.0064190635 0.0099657979
0.070868962 -0.0056430656 0.01062425
-0.056858532 -0.047286794 0.012212125
-0.055147476 -0.046767682 0.011691947
-0.0528096 -0.046058521 0.010497375
-0.05118227 -0.045761485 0.01015233
0.064870514 -0.010462788 0.0088045103
0.066949807 -0.009719112 0.0093599167
0.069462948 -0.0089563141 0.010331525
0.071100205 -0.0084597133 0.0107295
-0.054444924 -0.048896495 0.012104939
-0.052091196 -0.048192669 0.01102175
-0.050102502 -0.047695678 0.010224394
0.06406717 -0.013741034 0.0089272596
0.065420948 -0.012620921 0.0089851357
0.067600355 -0.01180259 0.0096726874
0.069912694 -0.011091287 0.010646242
-0.05326765 -0.051162224 0.012356152
-0.05126195 -0.050675642 0.011586949
-0.048863951 -0.049966622 0.010684226
-0.04661563 -0.050210677 0.010317557
0.064447045 -0.015854815 0.0090062171
0.06628444 -0.015026693 0.0093500558
0.068460122 -0.01434565 0.010283078
0.070017137 -0.013567231 0.010920726
-0.052061405 -0.053438369 0.012440968
-0.050428316 -0.053144783 0.012207201
-0.048042174 -0.052451722 0.0112356
-0.045687109 -0.05186297 0.010379137
0.064537369 -0.018397413 0.0091012549
0.066888891 -0.017577697 0.0099039664
0.069021545 -0.016895952 0.010934247
0.070302956 -0.016113743 0.011015875
-0.049685307 -0.055155516 0.012504592
-0.047346964 -0.054578654 0.01164855
-0.044942271 -0.053888965 0.010677067
-0.043291193 -0.053594466 0.010443277
0.063059486 -0.021651819 0.0092232749
0.064898029 -0.020562142 0.0093488572
0.067395523 -0.019758027 0.010402317
0.069397748 -0.019007744 0.01112429
-0.048764464 -0.056794204 0.012565636
-0.046610009 -0.056986365 0.012305459
-0.044185728 -0.05646259 0.011474458
-0.042074915 -0.055889528 0.010528794
-0.040269297 -0.056414463 0.010547984
0.061622381 -0.024867676 0.0093438597
0.063387491 -0.023885578 0.009449658
0.065677121 -0.023012754 0.010140792
0.067945033 -0.022138257 0.010955783
0.069460802 -0.021050617 0.011200666
-0.045697983 -0.05934871 0.012660411
-0.043634027 -0.058910549 0.012143208
-0.041229237 -0.058249861 0.011061587
-0.038982 -0.057772145 0.010598456
0.060470559 -0.027813362 0.0094542783
0.06180273 -0.027015742 0.0094241565
0.064097896 -0.026275571 0.010063036
0.066621765 -0.025444571 0.011032065
0.068386637 -0.024367416 0.011324934
-0.044934504 -0.060833495 0.012715735
-0.042861722 -0.060920391 0.012627523
-0.040511727 -0.060338013 0.011806626
-0.03807205 -0.059662081 0.010919057
-0.036056735 -0.059266564 0.010653608
0.060534153 -0.029873263 0.009531294
0.062679462 -0.029078424 0.0099180005
0.064921729 -0.028337521 0.010695876
0.06668321 -0.027647568 0.011447988
-0.041755736 -0.062729776 0.012785872
-0.039683372 -0.062764995 0.012619921
-0.037251484 -0.062104274 0.011698167
-0.034798805 -0.061434079 0.010817712
-0.033018794 -0.061491631 0.010736058
0.059119463 -0.03373041 0.0096758427
0.06068195 -0.03246383 0.0096906098
0.063227296 -0.031604741 0.010658624
0.065351442 -0.030780973 0.011474505
0.066627502 -0.029712545 0.011525197
-0.038426958 -0.064905606 0.012866413
-0.036544371 -0.064484552 0.012577294
-0.03409284 -0.063960969 0.011829359
-0.031869598 -0.063295193 0.01091442
-0.030325213 -0.06323117 0.010800458
0.057723101 -0.036907624 0.0097949617
0.059198722 -0.035836749 0.0098657664
0.061433122 -0.034912899 0.010553386
0.063841894 -0.034023929 0.01141415
0.065242678 -0.032863513 0.011643344
-0.035947125 -0.06642884 0.012922769
-0.033626784 -0.066011131 0.012656421
-0.031176098 -0.065372169 0.011659019
-0.028928485 -0.064948976 0.01086436
0.055904061 -0.03955749 0.0098944707
0.05769363 -0.038652569 0.0099714166
0.059806004 -0.037699051 0.010551843
0.062261626 -0.036915325 0.011545395
0.064090841 -0.036138851 0.011766084
-0.032730114 -0.067880005 0.012976255
-0.030362142 -0.067753747 0.01272078
-0.027900863 -0.067132808 0.011633737
-0.025684651 -0.066412263 0.010918284
0.053677462 -0.042593334 0.010008512
0.055780921 -0.04170486 0.010205738
0.058289021 -0.040957849 0.010821908
0.060517803 -0.040177651 0.011667781
0.062481001 -0.038870491 0.01186861
-0.029257748 -0.0696005 0.013039742
-0.027214549 -0.069464676 0.012761238
-0.024816575 -0.0686398 0.011694133
-0.022622593 -0.068069555 0.01107045
-0.020050926 -0.068111911 0.010980468
0.050541345 -0.046954077 0.010172331
0.051929582 -0.045970853 0.010135253
0.053989548 -0.0448117 0.010305815
0.056385141 -0.044038437 0.011062603
0.058800515 -0.043241479 0.01192172
0.060575496 -0.042342041 0.011998862
-0.02646197 -0.071092851 0.013094866
-0.024220638 -0.070899576 0.012814172
-0.021804249 -0.070323773 0.012175463
-0.019296767 -0.069659673 0.011455089
-0.016817538 -0.06919127 0.011020038
-0.014756199 -0.069127716 0.011017148
0.04615229 -0.050645996 0.010311429
0.048014991 -0.049743671 0.01027725
0.050258297 -0.048613384 0.010234452
0.052542664 -0.0479142 0.010753552
0.054835245 -0.047005586 0.011173921
0.057112154 -0.046195246 0.012052784
0.058771495 -0.044970002 0.012097556
-0.022951363 -0.072368257 0.013141701
-0.021076422 -0.072221994 0.013135782
-0.018622685 -0.071966231 0.012591925
-0.016102135 -0.071464069 0.011951579
-0.013854219 -0.070769064 0.011411874
-0.011482361 -0.069970056 0.011047878
-0.0090538738 -0.069757663 0.011039327
0.042484067 -0.054119267 0.010442176
0.043982312 -0.053349972 0.01041305
0.046096407 -0.052494105 0.010562474
0.048422549 -0.051773455 0.010820031
0.050874043 -0.051117651 0.011328637
0.05316329 -0.050183926 0.011760159
0.055352684 -0.049298953 0.012160178
0.056873929 -0.04814655 0.01221678
-0.017793965 -0.073924229 0.013198622
-0.015544916 -0.073705524 0.013098948
-0.013110883 -0.073112719 0.012611225
-0.010689578 -0.072108708 0.011815625
-0.0081597706 -0.071398079 0.011433971
-0.0059950142 -0.071015671 0.011185691
-0.0037524127 -0.070733957 0.011074566
-0.0012302931 -0.07037323 0.011060454
0.00083175843 -0.069904886 0.011042442
0.03543067 -0.059406422 0.010641548
0.037649702 -0.058418367 0.010604084
0.039654106 -0.057436462 0.010566895
0.041903179 -0.056231204 0.010708903
0.044322021 -0.055432923 0.011074577
0.046690058 -0.054827049 0.011396843
0.04919368 -0.05418928 0.011999811
0.051386002 -0.053296775 0.012410669
0.053499877 -0.052031144 0.012362847
-0.01447484 -0.074997693 0.013237964
-0.012430542 -0.074934661 0.013235109
-0.0099656135 -0.07442379 0.013132028
-0.007442615 -0.073738866 0.012633226
-0.0052699358 -0.07315734 0.012166229
-0.0028191819 -0.072531067 0.011869285
-0.00036032937 -0.071708679 0.011410395
0.0019814437 -0.071109951 0.011198417
0.0040900111 -0.070588015 0.011067206
0.0067850258 -0.07006526 0.011047012
0.0091855926 -0.069415525 0.011022129
0.011579733 -0.069003738 0.011006136
0.014102569 -0.068238221 0.010976917
0.022391904 -0.065723002 0.010880878
0.023833506 -0.065285519 0.010864157
0.025995949 -0.064629383 0.0108391
0.028409353 -0.063503727 0.010796465
0.03094021 -0.062440772 0.01075611
0.032985169 -0.061721876 0.010728741
0.035470627 -0.060938433 0.010865577
0.037927594 -0.060144421 0.011113315
0.040351961 -0.059342276 0.011471906
0.042768329 -0.058541827 0.01183054
0.045161478 -0.057738896 0.0122447
0.047460549 -0.056887049 0.012545858
0.049380079 -0.055816941 0.012505383
-0.0088196686 -0.075622365 0.013259946
-0.0067753689 -0.07555934 0.013257092
-0.0045269732 -0.07538379 0.013249991
-0.0020399191 -0.074791647 0.01291454
0.00047924861 -0.074061424 0.012699004
0.0026427894 -0.073435858 0.012508299
0.0051078773 -0.072778523 0.012416426
0.0075759729 -0.071937248 0.01196353
0.0098779891 -0.071347825 0.01184475
0.012292024 -0.070759922 0.011643426
0.014734061 -0.069847345 0.011322827
0.01713609 -0.069237374 0.011263711
0.019423034 -0.068623312 0.011297935
0.021841494 -0.067703307 0.011355322
0.024293033 -0.067019381 0.011429269
0.026674187 -0.066395871 0.011476828
0.029063296 -0.065433785 0.011511726
0.031417903 -0.064796142 0.011677986
0.033842955 -0.063984074 0.012063995
0.036296383 -0.063193284 0.012283974
0.038406231 -0.062522709 0.012425195
0.040762302 -0.061387535 0.012548959
0.04311575 -0.060253516 0.012672772
0.045151759 -0.059245571 0.012634601
-0.0008028482 -0.076310709 0.013283741
0.00098427909 -0.075768411 0.013263032
0.0033618284 -0.075242072 0.013242788
0.0057393573 -0.074715659 0.013222529
0.0084121032 -0.074197255 0.013202494
0.010494431 -0.073662907 0.013182025
0.013038959 -0.072954834 0.012821368
0.015560196 -0.072211526 0.012681748
0.017741254 -0.071593113 0.012435739
0.020223295 -0.070807382 0.012572551
0.022702871 -0.070022434 0.01270938
0.024850413 -0.069370821 0.012684496
0.027355885 -0.068610594 0.012655497
0.02979549 -0.067806356 0.01295838
0.031775903 -0.06698247 0.012927095
0.034164801 -0.066034667 0.012891082
0.036369525 -0.06503132 0.012853043
0.011643434 -0.074874736 0.013227049
0.013430562 -0.074332446 0.01320634
0.015932566 -0.073573284 0.013177359
0.018077109 -0.072922513 0.013152506
0.02057909 -0.072163314 0.013123509
0.02308109 -0.071404174 0.013094526
0.025225656 -0.070753448 0.013069673
0.027370209 -0.070102662 0.01304482
-0.029476808 0.041006189 0.0059022419
-0.027100613 0.042161684 0.0058584781
-0.024796681 0.042793106 0.005834301
-0.040524103 0.035086676 0.0061262404
-0.038295891 0.036078785 0.0060886261
-0.036234934 0.036952365 0.0060554412
-0.033867873 0.037896343 0.0060195839
-0.031334616 0.038665023 0.0059902393
-0.044805262 0.031615153 0.0062570707
-0.042617787 0.032871403 0.0062095672
-0.040084526 0.033640079 0.0061802375
-0.037913151 0.034298927 0.0061550699
-0.035741795 0.034957826 0.0061299163
-0.033208538 0.035726506 0.0061005568
-0.047890864 0.028111456 0.0063888123
-0.046348538 0.02910609 0.0063512553
-0.044491708 0.029932883 0.0063199149
-0.041958429 0.030701507 0.0062905406
-0.039425168 0.031470187 0.0062612104
-0.037253816 0.032129087 0.0062360424
-0.050573837 0.024453456 0.0065262513
-0.048276588 0.025850184 0.0064734546
-0.045893822 0.02674247 0.0064395135
-0.043722466 0.027401367 0.0064143608
-0.041189205 0.028170051 0.0063850014
-0.051764689 0.021998636 0.0066182958
-0.050191119 0.022673652 0.0065926942
-0.047657859 0.023442328 0.0065633347
-0.045136642 0.024238018 0.0064217746
-0.053292818 0.01857255 0.0067467717
-0.051585186 0.01978194 0.0067011327
-0.049531765 0.020503756 0.0066736676
-0.046856955 0.021146292 0.0064345472
-0.057118334 0.014251891 0.0069092331
-0.055576012 0.015246523 0.0068716761
-0.053372815 0.016494397 0.0068244878
-0.050933894 0.0173134 0.0067932811
-0.048762541 0.017972302 0.006768113
0.027883738 0.04092218 0.0058915312
0.029736353 0.040606569 0.0059028817
-0.057088029 0.012417785 0.0069778017
-0.05523118 0.013244525 0.0069464613
-0.052697919 0.014013204 0.0069170864
-0.050193697 0.014827252 0.006663668
0.030836713 0.039261758 0.0059528877
0.03273508 0.039409861 0.00594689
-0.058316782 0.0097408304 0.0070781885
-0.056743208 0.010415844 0.0070525869
-0.054571841 0.011074688 0.0070274342
-0.051930871 0.011750782 0.0065726237
0.031559061 0.037209753 0.0060294522
0.033897158 0.037840243 0.0060053109
-0.059987031 0.0054816669 0.0072378321
-0.058412872 0.0070652696 0.0071782549
-0.055973973 0.0078843283 0.0071470328
-0.053802595 0.0085431766 0.0071218805
0.034861565 0.03544692 0.006094553
0.037336703 0.035539694 0.0060904776
0.039172087 0.035569914 0.0060889036
-0.061499052 0.0026529264 0.0073439581
-0.060153317 0.0037525378 0.0073025259
-0.057737991 0.0045841346 0.007270854
-0.05520473 0.0053528161 0.0072415089
-0.05312904 0.006124815 0.0065449979
0.038164068 0.033684086 0.0061596693
0.040272437 0.034225099 0.006138925
0.042002793 0.034058917 0.0061447234
-0.061468761 0.00081887998 0.0074125263
-0.059611909 0.0016456209 0.0073811859
-0.057117999 0.0024529737 0.0071002184
-0.054679211 0.0033238567 0.006427736
-0.052516125 0.0040033152 0.0062906332
0.038823407 0.03151425 0.0062406412
0.040994775 0.032173157 0.0062154885
0.043103125 0.032714158 0.0061947298
-0.062241837 -0.0027072702 0.007544559
-0.061014041 -0.0015447382 0.0075007998
-0.058574595 -0.00083267502 0.0072067506
-0.056228988 0.00017673206 0.0065115951
-0.053924017 0.00079980528 0.006410771
0.041764021 0.029641641 0.0063099349
0.044297267 0.030410316 0.0062805745
0.046452533 0.030471815 0.0062777572
-0.061937943 -0.0047479882 0.0076207956
-0.060244799 -0.0040762527 0.0075952755
-0.057792094 -0.0032410778 0.0070631085
-0.055331931 -0.0024036437 0.0065308628
-0.053151626 -0.0017420931 0.0065056002
0.045066513 0.027878804 0.0063750502
0.047599774 0.028647486 0.0063457056
0.049267132 0.028363476 0.0063559129
-0.061638862 -0.0069679637 0.0077037141
-0.05958546 -0.0062460913 0.0076762484
-0.05717219 -0.0053853202 0.0068929619
-0.054669864 -0.0045824354 0.0066121626
-0.05248956 -0.0039208862 0.0065869
0.045725856 0.025708966 0.0064560082
0.048259117 0.02647765 0.006426678
0.050040185 0.026860053 0.0064119482
-0.062545061 -0.0095140543 0.0077991271
-0.061097484 -0.0090748267 0.0077823736
-0.058941927 -0.008696124 0.0070171682
-0.056441162 -0.0078961737 0.0067365076
-0.053897452 -0.0071243928 0.0067070378
-0.051717162 -0.0064627836 0.0066817747
0.046395686 0.023457428 0.0063090986
0.048918463 0.024307754 0.0065076509
0.051089834 0.024966653 0.0064824829
0.052757204 0.024682591 0.0064926911
-0.062137704 -0.012155411 0.0078977812
-0.060356744 -0.011590338 0.0077094361
-0.058212429 -0.01120997 0.0068608085
-0.055668745 -0.010438127 0.0068313526
-0.053125054 -0.0096662901 0.0068018669
-0.050944768 -0.0090046842 0.0067766043
-0.049244665 -0.0083301654 0.0067509552
0.047354769 0.021049134 0.0062295673
0.049687691 0.021776294 0.0066020964
0.051859077 0.022435142 0.0065769292
0.05330665 0.022874368 0.0065601608
-0.06173037 -0.014796701 0.0079964483
-0.059615236 -0.014108356 0.0076366086
-0.057550374 -0.013388764 0.0069421232
-0.055006675 -0.012616923 0.0069126524
-0.052462995 -0.011845085 0.0068831672
-0.050401125 -0.011120283 0.006855574
0.048080262 0.018604754 0.0061373375
0.050456934 0.019244783 0.0066965725
0.052628309 0.019903624 0.0066714203
0.054409355 0.020286089 0.0066566896
-0.061071031 -0.01696654 0.0080774212
-0.058849536 -0.016399184 0.0076553812
-0.056777973 -0.015930658 0.007036983
-0.054234289 -0.01515882 0.0070075123
-0.051967811 -0.013847869 0.0069579333
-0.050568096 -0.012856523 0.0069204997
0.048739817 0.016181618 0.0059537822
0.050963789 0.016835935 0.006604543
0.053287648 0.01773379 0.0067523778
0.055097114 0.018282851 0.0067314021
-0.060301788 -0.019498054 0.0081718676
-0.058225479 -0.018933563 0.0077863932
-0.056005582 -0.018472562 0.0071318275
-0.054064434 -0.017770283 0.0071050953
0.049375728 0.013503705 0.0059107984
0.051674273 0.014423681 0.0066763749
0.054056898 0.015202275 0.0068468237
0.056023635 0.015667396 0.0068289866
-0.059894439 -0.022139402 0.0082705356
-0.057468597 -0.021331912 0.0075726216
-0.055343516 -0.020651357 0.0072131278
-0.054000303 -0.019847216 0.0071827061
0.050037805 0.011324915 0.0059920987
0.052411832 0.011982559 0.0065506562
0.05482614 0.012670763 0.0069413148
0.057164233 0.013301252 0.006917173
-0.059235089 -0.024309237 0.0083514927
-0.056843549 -0.023497406 0.0074310806
-0.054920621 -0.022789426 0.007292958
0.050699864 0.0091461176 0.0060733985
0.053169589 0.0098712351 0.0062958654
0.055485468 0.010500926 0.0070222723
0.05801874 0.011269609 0.0069929124
0.060047992 0.011095375 0.0069989278
-0.058465853 -0.026840756 0.0084459689
-0.056089357 -0.026033659 0.0074145496
-0.054114521 -0.025566624 0.0073966077
0.051472258 0.0066042165 0.0061682723
0.053652577 0.007265775 0.0061430098
0.055967566 0.007903791 0.0068690833
0.058787975 0.0087380921 0.0070873736
0.06059745 0.009287158 0.0070664128
-0.057696607 -0.029372264 0.0085404301
-0.055316951 -0.028575556 0.0075093945
-0.053136639 -0.027913999 0.007484132
0.052244641 0.0040623187 0.0062631024
0.054424986 0.0047238762 0.0062378398
0.056788504 0.0053973165 0.0067958105
0.059557222 0.0062065776 0.0071818344
0.061366696 0.0067556459 0.0071608732
-0.057037268 -0.031542104 0.0086214021
-0.054654893 -0.030754352 0.0075906944
-0.052713767 -0.030052021 0.0075639617
0.052906722 0.001883526 0.0063444022
0.055087041 0.0025450827 0.0063191396
0.057526436 0.0032634416 0.00662525
0.06021655 0.0040367357 0.0072628069
0.062026028 0.0045858035 0.0072418461
-0.056299213 -0.03361623 0.0086987605
-0.053846508 -0.033177216 0.0076811044
-0.052065551 -0.032744981 0.0076644993
0.053679112 -0.00065837335 0.006439276
0.055859435 3.1835107e-06 0.0064140139
0.05824507 0.00079536362 0.0065839463
0.060875904 0.0018669072 0.0073437793
0.06268537 0.0024159676 0.0073228041
-0.055246804 -0.036133617 0.0087926285
-0.053167716 -0.035714507 0.0081760408
-0.050993044 -0.035294957 0.0077595776
0.054514777 -0.0030819671 0.0065296795
0.056631822 -0.0025387176 0.0065088589
0.059102625 -0.0016834431 0.0068611428
0.061645139 -0.00066461222 0.0074382406
0.063344732 0.0002460767 0.007403777
-0.054115657 -0.038555358 0.0088828979
-0.052352473 -0.038009536 0.0085284887
-0.050267726 -0.037355389 0.007836435
-0.048703823 -0.037277512 0.0078331195
0.055476971 -0.0052688341 0.0066111833
0.057293896 -0.0047175083 0.0065901587
0.059676919 -0.0040106066 0.0070634866
0.062295709 -0.0031603186 0.0075313868
-0.05345631 -0.04072519 0.0089638699
-0.051677201 -0.040179946 0.0087206885
-0.049605664 -0.039534185 0.0079177357
-0.047488607 -0.038990993 0.0078969151
0.05613903 -0.0074476278 0.006692498
0.057955958 -0.006896304 0.0066714585
0.060257725 -0.0062148119 0.0073959213
0.062711835 -0.0054757982 0.0076178815
-0.05243507 -0.042785246 0.0090406509
-0.050877597 -0.042707637 0.0090373708
-0.048790399 -0.042066004 0.0083457613
-0.046340179 -0.041398942 0.0079866899
0.056737542 -0.010200938 0.0067953095
0.058921706 -0.0094939955 0.0069112983
0.061117053 -0.0086096777 0.0075924657
0.063292369 -0.0079065459 0.0077086175
-0.050045367 -0.045121256 0.0091274073
-0.047963955 -0.04458813 0.0088845994
-0.045517158 -0.043846197 0.0080779847
-0.043700248 -0.043294877 0.0080568846
0.055740397 -0.01331947 0.0069121118
0.057320438 -0.012641717 0.0068864254
0.059730012 -0.011910264 0.0072754449
0.062078942 -0.011197674 0.0078319712
0.06377206 -0.010525879 0.0078064352
-0.048961133 -0.047063421 0.0091997646
-0.047277637 -0.046750139 0.0091876667
-0.044835977 -0.046017256 0.0083257677
-0.042674806 -0.045363382 0.0081339916
0.055920649 -0.015545304 0.0069953185
0.057982512 -0.014820506 0.0069677252
0.060364123 -0.014092909 0.0074402653
0.062738277 -0.013367508 0.0079129282
0.064075962 -0.012566602 0.0078826565
-0.04643305 -0.048951518 0.0092697665
-0.044027787 -0.048538975 0.008753405
-0.041539013 -0.04779505 0.0082246726
-0.039754458 -0.048443388 0.0082484316
0.056574624 -0.018024011 0.0070878477
0.058948267 -0.017413596 0.0072073955
0.061143529 -0.016506042 0.0078876978
0.063318804 -0.015798263 0.00800368
-0.045235176 -0.050870206 0.009341198
-0.043455109 -0.051044006 0.009247195
-0.040992737 -0.050471459 0.008506529
-0.038978234 -0.049952962 0.0083046984
0.055766962 -0.021243671 0.0072083785
0.057347011 -0.020565912 0.0071826922
0.059703417 -0.019831574 0.0077383779
0.062105399 -0.019089378 0.0081270179
0.06344308 -0.018288469 0.0080967462
-0.04251815 -0.053047668 0.0094219698
-0.040412538 -0.052584212 0.0089871529
-0.037924241 -0.051854189 0.0083755543
-0.036081336 -0.051823769 0.008373932
0.055797067 -0.023592209 0.0072962102
0.057974104 -0.022750247 0.0073753949
0.060257807 -0.022023212 0.0081537459
0.062450208 -0.021091321 0.0082017733
-0.041745115 -0.054551031 0.0094779758
-0.039555568 -0.054992627 0.009493961
-0.037218671 -0.05428772 0.0088302307
-0.035081886 -0.053371377 0.0084315911
-0.033407658 -0.053656608 0.0084418198
0.053899582 -0.026635762 0.0074104583
0.056197725 -0.025787303 0.0075321356
0.05849326 -0.025324346 0.0082776034
0.060568899 -0.024439082 0.0083273994
-0.038138837 -0.056879994 0.0095641837
-0.036282528 -0.056691259 0.0094566029
-0.034297876 -0.055898678 0.0086926753
-0.032018822 -0.055614885 0.008514734
0.052531153 -0.029860314 0.0075313626
0.054356147 -0.029009083 0.0074991081
0.056704942 -0.028345104 0.0079406854
0.059236698 -0.027859602 0.0084556174
0.06046449 -0.026697079 0.0084118433
-0.035253808 -0.058743168 0.0096331593
-0.033479664 -0.058370825 0.0095075974
-0.030988596 -0.057675425 0.0086749233
-0.028787093 -0.057542741 0.0085859951
0.051083781 -0.033042781 0.0076506883
0.052948263 -0.032212581 0.0076192152
0.055415679 -0.031445146 0.0078400848
0.057724677 -0.03068834 0.0085617425
0.059417803 -0.030016547 0.0085362224
-0.032638013 -0.060364507 0.0096931299
-0.030304652 -0.059811175 0.0091715343
-0.027850915 -0.059208654 0.0086480808
0.049154583 -0.036272224 0.0077718766
0.051066633 -0.035163216 0.0077300007
0.053610332 -0.034391373 0.0077005154
0.05595053 -0.03362456 0.0083383722
0.058266066 -0.032795206 0.0086403731
-0.031650051 -0.061757535 0.0097449701
-0.02939041 -0.062150549 0.0096876379
-0.027005618 -0.061604336 0.0089876186
-0.024910631 -0.061302092 0.0087256506
-0.023050364 -0.061619025 0.0087370099
0.047857031 -0.039838832 0.0079055438
0.049295366 -0.038477011 0.0078543313
0.051820822 -0.03770439 0.0078873653
0.054159962 -0.036927868 0.0085457107
0.056525644 -0.036107991 0.0087646591
0.058414299 -0.034692232 0.0087112691
-0.02804378 -0.064086489 0.0098311789
-0.026208414 -0.064056218 0.009829619
-0.024053579 -0.063473307 0.009140159
-0.021597896 -0.062836833 0.0087822424
-0.019117864 -0.062805407 0.0087804226
0.046054352 -0.042831618 0.008017878
0.047887452 -0.041680463 0.0079744235
0.050178442 -0.04104251 0.0081501389
0.052479066 -0.040136695 0.0086433515
0.054738022 -0.039395597 0.0088880146
0.056445658 -0.038186207 0.0088423751
-0.025213059 -0.065597482 0.0098869838
-0.0233777 -0.065567203 0.0098854238
-0.020850992 -0.064868122 0.0092749353
-0.018313097 -0.064147711 0.0088304393
-0.016145742 -0.063965969 0.0088231079
-0.014458574 -0.063771337 0.0088154199
0.042229299 -0.04657029 0.0081585879
0.044180818 -0.045482334 0.0081174644
0.046369214 -0.044520866 0.0080809873
0.048488509 -0.043850988 0.0082777981
0.050833769 -0.043058421 0.008942497
0.053029414 -0.042119354 0.0089902654
0.054571744 -0.041124716 0.008952708
-0.022214342 -0.066794194 0.0099310074
-0.020084273 -0.066779852 0.0099299718
-0.017541384 -0.06659244 0.0096721463
-0.01536391 -0.06598489 0.0092319734
-0.012867322 -0.06535086 0.0088741304
-0.010225935 -0.064965844 0.0088590812
-0.0079953242 -0.06466575 0.0088473074
-0.0055813887 -0.064250581 0.008831189
0.037661277 -0.051129263 0.0083301421
0.040151164 -0.049807161 0.0082801441
0.042054236 -0.048606444 0.0082348026
0.044516992 -0.047817841 0.008517432
0.046919193 -0.04702225 0.0090082726
0.049046662 -0.046356123 0.0091496333
0.051116176 -0.045036901 0.009099802
-0.016630577 -0.068259798 0.0099844579
-0.01456073 -0.068195969 0.0099815661
-0.012065787 -0.067676045 0.0098781232
-0.0095195789 -0.066953175 0.0094891163
-0.007324887 -0.066350125 0.0090213204
-0.0051400135 -0.065703109 0.0088854134
-0.0026753726 -0.065027349 0.0088595748
-6.8815752e-05 -0.064759262 0.0088488711
0.0016215711 -0.064444609 0.0088367006
0.03141905 -0.055403054 0.0084914379
0.033545535 -0.054191191 0.0084456485
0.035558969 -0.05335363 0.0084138522
0.03810266 -0.052581783 0.0083843954
0.040566139 -0.051786523 0.0086875837
0.042980939 -0.050984353 0.009157354
0.045355223 -0.050142407 0.0092920866
0.047298744 -0.049058914 0.0092511037
0.048872326 -0.048383955 0.0092254877
-0.0112666 -0.069002122 0.010010919
-0.008834851 -0.068828493 0.010003834
-0.0067040836 -0.06840767 0.0099876039
-0.0045083561 -0.067806832 0.0095198257
-0.0019504237 -0.067076683 0.0091861719
0.00060942804 -0.066338226 0.0089077726
0.0027897158 -0.065676622 0.0088825095
0.0051436191 -0.065259807 0.0088663641
0.008097779 -0.064859204 0.0088506276
0.010278073 -0.0641976 0.0088253655
0.012458387 -0.06353604 0.0088001173
0.015002073 -0.062764205 0.0087706316
0.01754576 -0.061992366 0.0087411609
0.01972607 -0.061330818 0.0087158987
0.022438435 -0.060243327 0.0086746067
0.024703095 -0.059423976 0.0086434269
0.026883405 -0.058762424 0.0086181639
0.028953362 -0.057737712 0.0085793557
0.031497039 -0.056965813 0.0085498998
