# .PCD v0.7 - Point Cloud Data file format
VERSION 0.7
FIELDS x y z
SIZE 4 4 4
TYPE F F F
COUNT 1 1 1
WIDTH 1270
HEIGHT 1
VIEWPOINT 0 0 0 1 0 0 0
POINTS 1270
DATA ascii
-0.052764084 -0.059061516 0.0065942341
-0.054332986 -0.057436898 0.006570342
-0.055901855 -0.05581224 0.0065464508
-0.057732206 -0.053916816 0.0065185651
-0.059562601 -0.052021436 0.0064906934
-0.061224502 -0.050358407 0.0066182734
-0.062894188 -0.048376095 0.0066437358
-0.06470824 -0.046584066 0.0066645388
-0.066398323 -0.0449338 0.0066947276
-0.068049736 -0.042951159 0.0067669963
-0.069784693 -0.041148514 0.0070075747
-0.071847782 -0.039623927 0.0074234717
-0.073696181 -0.03785307 0.0076845028
-0.075397663 -0.036062025 0.0079760766
-0.076784737 -0.034003582 0.0081424061
-0.077973224 -0.031991955 0.0082298731
-0.078899644 -0.030603006 0.008223773
-0.02335158 -0.084902711 0.0091297859
-0.02470722 -0.083928593 0.0091011357
-0.02643694 -0.082469121 0.0089574177
-0.028107075 -0.080694839 0.008606174
-0.0300011 -0.078898758 0.0081781028
-0.031627785 -0.077352673 0.0078171417
-0.033506546 -0.075518638 0.0075154677
-0.035398662 -0.073689446 0.0071714157
-0.036750678 -0.071853302 0.0069088051
-0.038674213 -0.070222437 0.0068727816
-0.040952388 -0.068585321 0.0068245977
-0.041998308 -0.06750223 0.0068086796
-0.058210123 -0.050714329 0.0065617757
-0.059779029 -0.049089719 0.0065378835
-0.061609384 -0.047194295 0.0065100277
-0.063439742 -0.045298874 0.006482142
-0.06473814 -0.043412827 0.0064724898
-0.066418536 -0.041229703 0.0064551439
-0.068128385 -0.03936059 0.0064309584
-0.070008665 -0.037849542 0.00664433
-0.071674526 -0.035981599 0.0067050373
-0.073381409 -0.034183782 0.0070132175
-0.075081535 -0.032285906 0.0073235054
-0.076743916 -0.030390225 0.0077183945
-0.078441381 -0.028608982 0.0080099283
-0.080192454 -0.026809217 0.00824985
-0.081443727 -0.025014827 0.0082401037
-0.019408168 -0.085763976 0.0092499144
-0.021484507 -0.084333323 0.0091138948
-0.023140823 -0.082668051 0.0085949814
-0.024619542 -0.081084892 0.0083383918
-0.026396807 -0.079091512 0.0077151731
-0.028288612 -0.077277236 0.0073223067
-0.029898128 -0.075700261 0.0070737451
-0.03173212 -0.074017756 0.0070417635
-0.033833843 -0.072436944 0.0069986396
-0.035145763 -0.071349189 0.0069736196
-0.067046411 -0.03831492 0.0064877849
-0.068344817 -0.036428872 0.0064781466
-0.070175208 -0.034533497 0.0064502619
-0.071735062 -0.03237664 0.0064366013
-0.073425218 -0.030694325 0.0065096729
-0.074984632 -0.028730361 0.0068472549
-0.076792568 -0.026954349 0.0073637934
-0.078566775 -0.025225459 0.0076016458
-0.080262989 -0.023449058 0.0078930659
-0.081857704 -0.021814741 0.0081944671
-0.083464675 -0.019699804 0.0082693957
-0.012335067 -0.088792101 0.0094377315
-0.013972746 -0.087556571 0.0094042188
-0.016155768 -0.086162716 0.0092547471
-0.017853305 -0.084816456 0.008987722
-0.01956116 -0.08284793 0.0084159924
-0.021154651 -0.080833972 0.0076135574
-0.022801299 -0.079406321 0.0072497325
-0.02485379 -0.077773169 0.0072092908
-0.026926322 -0.076178432 0.0071674427
-0.028554706 -0.074925393 0.0071345652
-0.071176067 -0.030789433 0.0064854985
-0.072035663 -0.029177278 0.0064858841
-0.073347278 -0.027024811 0.0064806631
-0.075071238 -0.025131248 0.0064564394
-0.076728985 -0.023430239 0.0067883469
-0.07828147 -0.021431353 0.0069864392
-0.080539778 -0.020083481 0.0076704361
-0.082008898 -0.018209407 0.0080615217
-0.08346203 -0.016426554 0.0083305119
-0.084691264 -0.014222743 0.0083291447
-0.0089693014 -0.089484826 0.0095410589
-0.010698766 -0.088159978 0.0094059398
-0.012362438 -0.08630804 0.008857647
-0.014249912 -0.084554985 0.0082830507
-0.015856177 -0.083014049 0.0079226941
-0.017528266 -0.081286997 0.0075507257
-0.019587783 -0.079608053 0.0073569547
-0.073718801 -0.023824178 0.0065275207
-0.074975982 -0.021748748 0.0065228343
-0.07657709 -0.019781336 0.0065041929
-0.078481749 -0.018163437 0.0069689658
-0.080110937 -0.016293004 0.007447998
-0.081797659 -0.014421041 0.0077582039
-0.083454654 -0.012664776 0.0081340401
-0.08529564 -0.010956435 0.0083691822
-0.086187601 -0.009092913 0.0083731171
-0.0051417784 -0.089915872 0.0096652107
-0.0070681106 -0.0884047 0.0094392104
-0.0088279815 -0.086660072 0.0087797781
-0.01058466 -0.084720746 0.007989496
-0.012462437 -0.083060496 0.0075386744
-0.014249081 -0.08172483 0.0075018518
-0.015615975 -0.08074256 0.0074729687
-0.075570278 -0.017935824 0.0065734033
-0.076784499 -0.016317414 0.0065616434
-0.078289531 -0.014462913 0.0073781712
-0.080048144 -0.012583076 0.0075192973
-0.081781209 -0.010967771 0.0075896475
-0.083534509 -0.0092598982 0.0078611542
-0.08531484 -0.00725077 0.0083041629
-0.086560249 -0.0051267757 0.0084341913
-0.087412722 -0.0035279046 0.0084345546
-0.00022765703 -0.090588883 0.0098223761
-0.0017954975 -0.089681402 0.0097851492
-0.0035263565 -0.088272274 0.0093877297
-0.005355943 -0.086478755 0.0085543431
-0.0068824501 -0.084826738 0.007948624
-0.008745403 -0.083525129 0.0076583698
-0.010855277 -0.082423329 0.0076060435
-0.075516202 -0.014742667 0.0066348035
-0.076576337 -0.012798892 0.0069203302
-0.078165181 -0.011063939 0.0074306885
-0.079994269 -0.0094031077 0.0075804563
-0.081817105 -0.0075155636 0.0075527048
-0.083639897 -0.005627973 0.0075249393
-0.085251652 -0.0037875779 0.0080039958
-0.086726472 -0.0019561443 0.008487572
-0.087359145 -0.00036119242 0.0084954547
0.0034564175 -0.091181628 0.0099385558
0.0016481854 -0.09002164 0.0098067429
4.4464407e-05 -0.088346384 0.0093732188
-0.0018292019 -0.086650871 0.0085895527
-0.0034987985 -0.084950097 0.0079241972
-0.0050246301 -0.083768032 0.007782327
-0.075368986 -0.011285 0.0067043398
-0.077028312 -0.0096308645 0.0073033292
-0.078347445 -0.0077213021 0.0074685328
-0.080234401 -0.006414881 0.0074277148
-0.082251973 -0.0041376674 0.0076006344
-0.083437495 -0.0022096608 0.007595663
-0.084944636 -0.00045641803 0.0080433292
-0.086743146 0.0013878477 0.0085493336
0.0073586893 -0.091355838 0.010070077
0.0053171609 -0.090180151 0.0099381022
0.0034722101 -0.088689514 0.009413722
0.0018658381 -0.086792916 0.0084086759
3.1699768e-05 -0.085131384 0.0079315491
-0.0018387813 -0.084178932 0.0078846952
-0.083575875 0.0015904681 0.0077527082
-0.0853827 0.0032481442 0.0081639793
-0.086678796 0.0052534044 0.0085326275
-0.087585755 0.0070340903 0.0086255055
0.010571977 -0.091702729 0.010174588
0.0087468484 -0.090247974 0.010027465
0.00692415 -0.08843451 0.0091857566
0.0053132656 -0.086636588 0.0083360681
0.0037071223 -0.085196033 0.0080572665
0.0018819941 -0.084421843 0.0080086524
-0.082318269 0.0035733692 0.0077421321
-0.083460465 0.0049718102 0.0077287564
-0.085145898 0.0067008021 0.0079757152
-0.086564265 0.0085607041 0.0085891532
-0.087532133 0.010200835 0.0086864075
0.013735219 -0.091890305 0.010280337
0.012332243 -0.09038724 0.0098596001
0.010587436 -0.088538662 0.0091563584
0.0087678181 -0.086917721 0.0086288527
0.0071158521 -0.085096933 0.0081768613
0.0056088059 -0.084309921 0.0081394697
-0.081341356 0.0049345759 0.007801244
-0.081876598 0.0068976567 0.0070687989
-0.083340928 0.0084844287 0.0072979899
-0.084880792 0.010271313 0.0079661701
-0.086656533 0.012046011 0.0086676553
-0.087645464 0.013898466 0.0087514324
0.017703906 -0.091256224 0.010429214
0.015796265 -0.090436623 0.010164163
0.014097784 -0.088771604 0.0094412053
0.012218984 -0.086800396 0.0084047057
0.01011253 -0.085453846 0.0082736881
-0.080794163 0.0087734722 0.0068909302
-0.081653751 0.010385622 0.0068913326
-0.083277978 0.012200994 0.007369455
-0.085245676 0.0139474 0.0082633821
-0.086593978 0.015741641 0.0087387059
-0.087407075 0.017589908 0.0088284779
0.020869361 -0.091311872 0.010537509
0.01930153 -0.090404399 0.010500282
0.017516432 -0.088640295 0.0094707422
0.015941704 -0.086865857 0.0085320408
0.014096325 -0.085878789 0.0084033627
-0.080740087 0.011966616 0.0069523305
-0.081543796 0.013737492 0.0069576073
-0.08299654 0.015559847 0.0073417211
-0.084813781 0.017292263 0.0080785137
-0.086385511 0.019120915 0.0087922169
-0.087001741 0.020750489 0.0089014173
0.024559427 -0.091552727 0.010660454
0.022733329 -0.090486452 0.010533874
0.021181049 -0.088664986 0.009750816
0.019388402 -0.087104492 0.0089921262
0.018092096 -0.085594155 0.0085466523
-0.081359312 0.017300958 0.0070304349
-0.082939006 0.018960552 0.0074070888
-0.084675319 0.020850353 0.0082330666
-0.086315446 0.022322284 0.0089544225
0.026237924 -0.09037555 0.010740376
0.024721747 -0.089001462 0.010380046
0.022841884 -0.086881913 0.0091870734
0.021020921 -0.08546824 0.0086501632
-0.081423081 0.020868821 0.0070947325
-0.083030201 0.022788782 0.0077422094
-0.084958501 0.024473472 0.0087286569
-0.086148478 0.026618352 0.0090402728
-0.087135948 0.028408105 0.0090395389
0.029870912 -0.08953435 0.010881512
0.028252082 -0.088844977 0.010738405
0.02640241 -0.087302186 0.0098935543
0.024583049 -0.085655078 0.008769678
-0.08027257 0.022818314 0.0071708215
-0.081548065 0.024314515 0.0074275788
-0.083100379 0.026171027 0.0081364261
-0.084717393 0.028056489 0.0086616073
-0.08632227 0.029713651 0.0090919929
-0.087350614 0.031315587 0.009086336
0.031258687 -0.088608444 0.010946716
0.02984928 -0.087060258 0.010259735
0.028191393 -0.085443549 0.0091484254
0.026352642 -0.084852211 0.0088457512
-0.079291619 0.024185132 0.0072301803
-0.079852648 0.025969503 0.007244085
-0.08119642 0.027751928 0.0076311845
-0.082666896 0.029606547 0.0081384964
-0.084402934 0.031173849 0.0087566162
-0.086120486 0.032726929 0.0091551328
0.035394456 -0.088349342 0.011094374
0.03335264 -0.08726126 0.010877346
0.031857833 -0.085542105 0.0097158505
0.030354464 -0.084212773 0.0089958869
-0.079334527 0.029509379 0.0073279822
-0.080797642 0.031262763 0.0078939022
-0.082737848 0.033126011 0.0087790387
-0.084179819 0.034691505 0.0092587909
0.03703336 -0.087284565 0.011170824
0.03527176 -0.08556851 0.010474792
0.033551872 -0.084058128 0.009382138
-0.078287877 0.031088017 0.0073935324
-0.079342723 0.03292983 0.0075582135
-0.081065416 0.034862462 0.0084521649
-0.08268968 0.036776196 0.0092581492
-0.083532512 0.038639698 0.0093547562
0.04045815 -0.087608747 0.011283069
0.03883177 -0.085532606 0.010998738
0.037132353 -0.083650596 0.010026777
0.035314433 -0.082890712 0.0095254416
-0.077949107 0.034905296 0.0074764146
-0.079409167 0.036835957 0.0079623433
-0.08116331 0.038666952 0.008769921
-0.082671084 0.040238351 0.0093031237
0.042271089 -0.08572419 0.010580224
0.040629681 -0.083835423 0.010358562
0.039153617 -0.082341954 0.009459774
-0.07694751 0.036920253 0.0075485688
-0.077452429 0.038526211 0.0075610867
-0.079085395 0.040283386 0.0080378242
-0.081025407 0.041997571 0.0090369368
-0.082244903 0.043444034 0.009488794
0.044072282 -0.083950303 0.010475338
0.042335089 -0.082242273 0.0096687814
0.041047927 -0.081206769 0.0094212452
-0.076251484 0.040315036 0.0076358998
-0.077562667 0.041918822 0.0078707105
-0.079262979 0.043691415 0.0087775979
-0.080530301 0.045423713 0.0094737038
0.04777291 -0.083890326 0.010527256
0.045902286 -0.082217418 0.0101705
0.044227064 -0.080585122 0.0095426338
-0.075270504 0.041681908 0.0076952744
-0.075626269 0.043527193 0.0077173831
-0.077093937 0.045258932 0.0083244741
-0.078821309 0.046921179 0.0093144551
0.04954594 -0.082154743 0.0096970452
0.047715586 -0.080259323 0.0096692042
0.046399165 -0.079437666 0.0096390462
-0.074139014 0.045654614 0.0078084068
-0.075315312 0.047172621 0.0081296917
-0.077182479 0.048899781 0.0092649832
-0.078328416 0.049899101 0.009744403
0.051168878 -0.080586247 0.0097823367
0.049410667 -0.078920238 0.0097527122
-0.073818937 0.048843097 0.0078788949
-0.075437009 0.050609652 0.0091069499
-0.076550804 0.052032422 0.0098455679
0.054730557 -0.080426671 0.010909121
0.05304262 -0.078728728 0.010006749
0.051488038 -0.077450983 0.0098518264
-0.072186977 0.050943777 0.0079744319
-0.073692456 0.052553248 0.0088281538
-0.075182408 0.054047443 0.0098303352
0.056616165 -0.078604341 0.011008202
0.054955762 -0.076926403 0.0099813566
-0.070715539 0.052994039 0.0080634858
-0.071941487 0.054500911 0.0085496269
-0.073837668 0.056086261 0.0097479923
-0.074769661 0.05749175 0.010008873
0.058310434 -0.077135108 0.010649324
0.056840181 -0.075628661 0.010070656
-0.069464095 0.054622307 0.0081370706
-0.070411175 0.056151617 0.0083830757
-0.072044745 0.057878293 0.0096097765
-0.073419422 0.05931583 0.010089508
0.061952833 -0.077120304 0.011157642
0.060287207 -0.075405993 0.010277227
0.058916535 -0.07422021 0.010168632
-0.068519689 0.057979625 0.008482446
-0.070252568 0.059786413 0.0094570918
-0.071680665 0.061421037 0.010188813
0.06376484 -0.075218089 0.010317472
0.062195927 -0.073593467 0.01029358
0.060879499 -0.072771803 0.010263407
-0.066452637 0.05962668 0.0083343815
-0.06812977 0.061278015 0.0091540534
-0.069749668 0.063132927 0.010105452
-0.070692234 0.064547345 0.010281243
0.065387763 -0.073649585 0.010402763
0.063818865 -0.072024971 0.010378872
-0.065091178 0.06146593 0.0084156934
-0.066404149 0.062813029 0.0091460506
-0.068140708 0.064594604 0.010120063
-0.06935095 0.065843634 0.010351722
0.067281216 -0.071819663 0.010502235
0.065712295 -0.070195034 0.010478344
-0.063516945 0.063301466 0.0085042687
-0.064599395 0.064731129 0.0089939125
-0.066260986 0.066411279 0.010218838
-0.067473166 0.067658439 0.010450411
0.069174603 -0.069989771 0.010601781
0.067603499 -0.068498172 0.010575322
-0.061565798 0.065396555 0.0086107021
-0.062709905 0.066557251 0.0090932399
-0.06440872 0.068260819 0.010233892
-0.065595366 0.069473237 0.0105491
0.070797548 -0.068421282 0.010687073
0.069490172 -0.067067377 0.010667161
-0.05994286 0.066965051 0.0086959936
-0.061169982 0.068220451 0.0089272317
-0.062851377 0.069884747 0.010151176
-0.063985847 0.071028762 0.010633684
0.072690986 -0.066591352 0.010786544
0.071108602 -0.065764979 0.010747329
-0.058049422 0.068794981 0.0087955249
-0.059278514 0.070048474 0.0090266159
-0.060969677 0.071703315 0.010250052
-0.062108066 0.072843574 0.010732372
0.076153331 -0.066386037 0.010909983
0.074578427 -0.065116204 0.01087926
-0.056155987 0.07062491 0.0088950126
-0.057387054 0.071876504 0.0091260308
-0.059113778 0.073556721 0.010265323
-0.060489591 0.074926883 0.010827112
-0.055074051 0.07167054 0.0089518968
-0.055763822 0.073350504 0.009141352
-0.057427943 0.075076789 0.010018275
-0.059012517 0.076738052 0.010811831
-0.060427032 0.078621432 0.010898155
-0.053685538 0.075106427 0.0090638874
-0.055294555 0.076681145 0.0097882869
-0.057077158 0.078405254 0.010759621
0.081336424 -0.061077654 0.011187959
0.080127217 -0.059535421 0.011174952
0.079489276 -0.057927158 0.011182888
-0.05198285 0.07709942 0.0094100256
-0.053596631 0.078667387 0.010134135
-0.055197433 0.080221906 0.010858412
0.082924575 -0.05931842 0.011275603
0.081617177 -0.057964571 0.011255692
0.080571249 -0.05688148 0.011239729
-0.048582267 0.077944577 0.0092930635
-0.050361585 0.0786663 0.009495263
-0.051980376 0.080229416 0.01021908
-0.053609975 0.081816614 0.01085958
0.08454752 -0.057749927 0.011360896
0.083240122 -0.056396086 0.011340982
0.082194187 -0.055312984 0.011325036
-0.047500297 0.078990251 0.0093499189
-0.048594315 0.08034876 0.0098378723
-0.050094791 0.082051769 0.010318191
0.084863044 -0.054827571 0.011426275
0.08327616 -0.054267306 0.011381906
-0.0456069 0.080820143 0.0094494345
-0.046612401 0.082015365 0.0098658847
-0.048209194 0.083874106 0.01041727
-0.043713454 0.082650058 0.009548937
-0.044894438 0.083775125 0.010029533
-0.046592951 0.085436143 0.010502216
-0.042090517 0.084218562 0.0096342275
-0.043178003 0.085533381 0.01019307
-0.044794433 0.087399267 0.010867811
-0.039857015 0.085928448 0.0097432612
-0.041212175 0.087234423 0.010149688
-0.038042147 0.087607652 0.0098372558
-0.039461713 0.088922106 0.010012893
-0.036689721 0.088914722 0.0099083213
-0.037881188 0.090380624 0.0098945163
-0.0056299358 0.094788566 0.012091274
-0.0040898598 0.095801964 0.011412785
-0.00579551 0.097220376 0.011630508
-0.00038653883 0.0959066 0.011292419
-0.0022289199 0.097092412 0.011250903
-0.0040592849 0.098987848 0.011223062
0.0030817955 0.09646669 0.011422659
0.0014948775 0.097026914 0.011378291
-0.00033549246 0.098922357 0.011350404
0.0047516003 0.097661704 0.01150261
0.0033883036 0.098856859 0.011477822
0.0015579539 0.10075227 0.011449921
0.0084240213 0.097703598 0.011630214
0.0065801535 0.098800734 0.011587004
0.0050112475 0.10042535 0.011563114
0.003264037 0.10199398 0.011532021
0.010276901 0.097138666 0.011683685
0.0099378647 0.099114321 0.011708806
0.0084735556 0.10063061 0.011686492
0.0069046887 0.10225527 0.0116626
0.013252308 0.10001428 0.011840058
0.011935885 0.10083593 0.011809929
0.010364727 0.1023275 0.011783469
0.015129936 0.10091282 0.011921666
0.013556568 0.10227138 0.011892651
0.011971936 0.1029647 0.011850839
0.018319534 0.10072365 0.01202828
0.016815068 0.10166271 0.011993845
0.028078992 0.098848529 0.012330375
0.026050754 0.10020052 0.012285528
0.024180226 0.10115293 0.012238688
0.032631695 0.097455293 0.012461611
0.031053059 0.098503403 0.012426659
0.029481938 0.09999501 0.012400213
0.033440147 0.098062135 0.012500857
0.032394256 0.099145278 0.012484939
-0.047243305 -0.063575752 0.0056999745
-0.048293579 -0.062488221 0.0056839818
-0.038524508 -0.069341853 0.0058935825
-0.040371511 -0.067973033 0.0058553144
-0.042216197 -0.066470549 0.0058196206
-0.043793857 -0.064972833 0.0057930807
-0.045631774 -0.063069567 0.0057650749
-0.047469683 -0.061166316 0.0057370989
-0.049045067 -0.059534982 0.0057131024
-0.050883025 -0.057631765 0.0056850957
-0.052720938 -0.055728506 0.0056571197
-0.054296285 -0.054097135 0.0056331381
-0.056134239 -0.052193921 0.0056051323
-0.057700533 -0.050028149 0.0055914121
-0.059275918 -0.048396826 0.0055674287
-0.061113834 -0.046493564 0.0055394387
-0.062951788 -0.044590354 0.0055114469
-0.064255551 -0.042696513 0.0055017211
-0.065305792 -0.041608941 0.0054857284
-0.029525051 -0.074311055 0.0061117364
-0.031193975 -0.072945341 0.0060795629
-0.033216741 -0.071439758 0.0060377745
-0.035039652 -0.070083484 0.0060001174
-0.036903929 -0.068301275 0.0059689591
-0.038741842 -0.066398025 0.0059409672
-0.040336303 -0.064779446 0.0058326693
-0.056070909 -0.048453193 0.0056770639
-0.057646248 -0.046821818 0.0056530675
-0.059484202 -0.0449186 0.0056250757
-0.061322119 -0.043015346 0.0055970857
-0.062897503 -0.041384019 0.0055731032
-0.064472854 -0.03975264 0.0055491067
-0.066062182 -0.037730448 0.0055319248
-0.067605518 -0.035421196 0.0055216802
-0.069180861 -0.033789825 0.0054976838
-0.070489176 -0.032163199 0.0054828264
-0.022644173 -0.078173898 0.0062773535
-0.024223169 -0.076756321 0.0062492695
-0.026257971 -0.075208545 0.006207834
-0.027913518 -0.07380487 0.0061768517
-0.02978255 -0.071932212 0.0059804069
-0.031653408 -0.07005772 0.0057839612
-0.033230957 -0.068424158 0.0057599349
-0.064409554 -0.03601196 0.0056210384
-0.066247463 -0.034108706 0.0055930624
-0.067822814 -0.03247733 0.0055690659
-0.069660775 -0.030574111 0.0055410592
-0.071142569 -0.028677117 0.0055252556
-0.072005726 -0.027058316 0.0055256309
-0.017863816 -0.079861641 0.0064109834
-0.019236386 -0.078875326 0.006381982
-0.021032639 -0.077667721 0.0063424679
-0.022812674 -0.075564973 0.0061772158
-0.024491122 -0.073662668 0.0059640976
-0.026125818 -0.07209187 0.0056033665
-0.028029198 -0.070244648 0.0052384948
-0.067851685 -0.028846025 0.0053689023
-0.069869064 -0.027095895 0.005598736
-0.071444392 -0.025464524 0.0055747395
-0.07301373 -0.023476895 0.0055576134
-0.074314497 -0.021404956 0.0055512926
-0.012021107 -0.081924379 0.0065743038
-0.013528359 -0.080777876 0.0065436261
-0.015716249 -0.079257913 0.006496408
-0.01757841 -0.077496007 0.0062981499
-0.019214036 -0.075948194 0.0058535514
-0.020906093 -0.074059591 0.0055563124
-0.02269277 -0.071948737 0.0053910082
-0.07138107 -0.021723792 0.0056466563
-0.073219016 -0.019820582 0.0056186654
-0.07446643 -0.018105894 0.0056075798
-0.075029798 -0.016314162 0.0056215171
-0.0088221133 -0.082336999 0.0066770986
-0.010403519 -0.081061915 0.0066462737
-0.012162184 -0.079263158 0.0062551592
-0.014126556 -0.077584349 0.0057819188
-0.015783599 -0.075827509 0.0055573005
-0.017365469 -0.074189454 0.0055332137
-0.019210944 -0.072278365 0.0055051167
-0.071270853 -0.018114874 0.0051718829
-0.07289312 -0.016351739 0.0056946212
-0.074406132 -0.014543316 0.0056760758
-0.0035045419 -0.083855972 0.0068324292
-0.0054440619 -0.082693376 0.0067871297
-0.0070651998 -0.080918059 0.0065822704
-0.0085677858 -0.07936883 0.0060740588
-0.010447175 -0.077531599 0.0057098428
-0.012292692 -0.075620547 0.0056817317
-0.01387451 -0.073982455 0.0056576449
-0.015482837 -0.072465941 0.0056303721
-0.072927535 -0.012702732 0.0054945843
-0.074709117 -0.010897956 0.0057335598
-0.076243088 -0.0090764249 0.0057145515
-0.077284284 -0.0074544675 0.0057088332
0.00023764392 -0.083743617 0.0069637634
-0.0015950711 -0.082966276 0.0069149518
-0.0034980907 -0.08129584 0.0063800151
-0.0051583555 -0.079373322 0.0059582274
-0.0066926107 -0.077597633 0.0058382684
-0.0085380878 -0.075686537 0.0058101723
-0.010464091 -0.074004076 0.0057750074
-0.012242694 -0.072669283 0.0057384465
-0.074582919 -0.0075001884 0.0054933643
-0.076282442 -0.0058483607 0.0055231815
-0.07709378 -0.0044895969 0.0054371161
0.0034426588 -0.083799995 0.0070733977
0.0018552364 -0.082881153 0.0070357192
0.00025129048 -0.081349492 0.0065640733
-0.0016289165 -0.079565309 0.0059764655
-0.0035549172 -0.077882849 0.0059413156
-0.0052780467 -0.076441646 0.0059086569
-0.006656284 -0.075451292 0.0058795093
-0.078733005 0.0016583167 0.005828701
0.0074413987 -0.084315762 0.0072018858
0.0053005777 -0.083087534 0.0071508437
0.0034848596 -0.081306189 0.007121372
0.0018592244 -0.079869978 0.0062024379
0.00034382666 -0.078488149 0.0060646674
-0.077909142 0.0029801831 0.005881818
-0.079533391 0.0048796907 0.0058611417
-0.080516689 0.0067678732 0.0058623655
0.010586658 -0.084745273 0.0073025059
0.0087911831 -0.083346643 0.0071664928
0.0071083046 -0.081429429 0.0069773318
0.0053474987 -0.079669192 0.0062988661
0.0037355847 -0.07817138 0.0061877342
0.0021620209 -0.077484965 0.006146132
-0.078117438 0.006458404 0.0059394492
-0.079821795 0.0083593298 0.0059160283
-0.080462404 0.0099742031 0.0059240209
0.014113993 -0.084700391 0.0074251639
0.012267023 -0.083331518 0.0073868819
0.010526905 -0.08151976 0.0069602542
0.0087542916 -0.07970956 0.0063323556
0.0067074909 -0.07837005 0.0062866155
-0.076286227 0.0083229095 0.0058498122
-0.0780541 0.010199126 0.0060113808
-0.079507634 0.011852656 0.0059920084
-0.080394521 0.013982146 0.0060010841
0.0176377 -0.084869266 0.0075437194
0.016006183 -0.083397307 0.0075147953
0.014167579 -0.081518866 0.0073751183
0.012425349 -0.079937853 0.0068551702
-0.076140873 0.011755619 0.0053786729
-0.077606633 0.013627891 0.0059906906
-0.079566121 0.015571232 0.0060593318
-0.080691852 0.017461918 0.0060556987
0.021061184 -0.084644407 0.0076661175
0.019478977 -0.083534591 0.0075320909
0.017805099 -0.081662819 0.0071422383
0.016071223 -0.079876602 0.0065819593
0.014659068 -0.078778274 0.006553635
-0.075868458 0.015372051 0.0053702258
-0.077821337 0.017178027 0.0060725538
-0.07977441 0.019049445 0.0061169928
-0.080553032 0.020399522 0.0061152559
0.024539335 -0.0843492 0.0077917473
0.022953004 -0.083538629 0.0076686768
0.021236511 -0.081784166 0.006991623
0.019562175 -0.079669595 0.0067063607
0.017758511 -0.078457013 0.0066666631
-0.07403069 0.017249092 0.0052810507
-0.076208062 0.019177141 0.0057755318
-0.077873163 0.020886917 0.0062169014
-0.079234883 0.022514507 0.0062002344
0.026667347 -0.083463304 0.0078817541
0.024876898 -0.081833206 0.0071831355
0.023127876 -0.080328681 0.0068172207
0.021180363 -0.079161294 0.0067717033
-0.074362323 0.020778671 0.0054354677
-0.07579916 0.022610361 0.0061387056
-0.07754726 0.02435576 0.0062928423
-0.07876654 0.025980834 0.0062810173
0.029950736 -0.083482169 0.0079948204
0.028515512 -0.081881538 0.0073746406
0.026772145 -0.080186747 0.0069457404
0.024925847 -0.079763927 0.0068898071
-0.072330765 0.022586666 0.0054392824
-0.074061207 0.024260892 0.0056251585
-0.075564884 0.025976473 0.006141318
-0.077755563 0.027833983 0.0063504884
-0.078525171 0.029718399 0.0063590417
0.033651888 -0.08263851 0.0081383577
0.031920146 -0.08186578 0.0078260945
0.030279888 -0.080050021 0.0071694897
0.028689489 -0.079293378 0.0070285685
-0.070555776 0.02443408 0.0055350075
-0.072003543 0.026069777 0.0055155093
-0.07394737 0.027828999 0.0058385823
-0.075854316 0.029671447 0.0064504119
-0.077364288 0.031658016 0.006435317
0.035462599 -0.081639461 0.0082195178
0.033758651 -0.080150239 0.0073544905
0.032184944 -0.07881812 0.0071581528
-0.069858052 0.026032064 0.0055888705
-0.07050129 0.027653601 0.0055969199
-0.072212659 0.029562332 0.0055734124
-0.074074872 0.031587332 0.0062139845
-0.075790972 0.033412166 0.0065223584
-0.07694263 0.034822244 0.0065088766
0.038482025 -0.081387095 0.0083285002
0.037203565 -0.0803928 0.0078580799
0.035511341 -0.078822933 0.0072729671
-0.069803551 0.029251575 0.005650782
-0.070697799 0.031170314 0.005655705
-0.072596505 0.033160724 0.0058091851
-0.074038282 0.034955855 0.00651157
-0.075736701 0.036618512 0.0065840147
-0.076515324 0.037968587 0.0065822778
0.042506393 -0.08038877 0.0084860912
0.040667653 -0.079967663 0.008430439
0.039154373 -0.078654043 0.0074853376
0.037750114 -0.077574126 0.0073735528
-0.069918774 0.033010822 0.0057168873
-0.070512742 0.034899913 0.0057316441
-0.07221429 0.036600329 0.006104867
-0.07371971 0.038453303 0.0066108713
-0.075197123 0.040083606 0.0066672415
0.043859899 -0.07934349 0.0085523278
0.042578742 -0.078321874 0.0081935264
0.041071355 -0.076827392 0.0075021917
-0.069135487 0.037022665 0.0058187423
-0.070185512 0.038383003 0.005807857
-0.071910135 0.040202476 0.0061158044
-0.073509544 0.041924812 0.0067598494
-0.074555278 0.043279547 0.0067489864
0.045906939 -0.078363836 0.0086413054
0.044263259 -0.076837085 0.0078346264
0.042914987 -0.075678982 0.0075872671
-0.068549149 0.039964467 0.0058938563
-0.07039462 0.04187556 0.005865775
-0.071919449 0.043531653 0.006733506
-0.073321708 0.045128819 0.0068260599
0.04922422 -0.078101449 0.0087607494
0.047757614 -0.076834992 0.00844777
0.046172202 -0.075160459 0.007709451
0.044325903 -0.074737631 0.0076535325
-0.06690371 0.042082518 0.0059901765
-0.06848558 0.043720573 0.0059661046
-0.070228159 0.045403063 0.0063011758
-0.07208816 0.046978027 0.0069031483
0.051195301 -0.076647036 0.0088559389
0.049802065 -0.075231396 0.008333846
0.048366822 -0.073735207 0.0078117782
-0.065531008 0.04393699 0.0060721366
-0.066576488 0.045565624 0.0060664332
-0.068548687 0.047395863 0.0061325068
-0.070186913 0.048815496 0.0070030717
-0.071499743 0.050174959 0.0069830688
0.053244825 -0.075091027 0.0088556502
0.051440906 -0.073460922 0.0081050312
0.049725905 -0.072685622 0.0078782784
-0.065152839 0.047258191 0.0061471434
-0.066785596 0.049058173 0.0061243065
-0.068371221 0.05073119 0.0068512941
-0.069895953 0.052475888 0.0070813568
0.055960149 -0.074745357 0.0090559442
0.054700088 -0.073449537 0.0087030083
0.052960005 -0.071803205 0.0080064591
-0.063992888 0.049223728 0.0062238425
-0.06514924 0.050639641 0.0062103057
-0.06679599 0.052361574 0.0067693172
-0.06849397 0.054131191 0.0071606552
-0.069000982 0.05574378 0.007173189
0.058302 -0.073182926 0.0091659697
0.056642435 -0.071652159 0.0085742678
0.05505579 -0.070248961 0.0081078103
-0.062458329 0.051129069 0.0063123424
-0.063240208 0.052484665 0.0063106641
-0.064981215 0.054291818 0.0065969499
-0.066592686 0.055968702 0.0072605638
-0.067642927 0.057056274 0.0072445711
0.061881207 -0.072176769 0.0093083279
0.06028777 -0.071614176 0.0092638088
0.058596246 -0.06985943 0.0084041376
0.057035003 -0.068788558 0.0082033696
-0.0614652 0.054332059 0.0064063901
-0.0630401 0.055990372 0.0064829914
-0.064510234 0.057718404 0.0071831457
-0.065741688 0.058893748 0.0073444787
0.062967643 -0.071126789 0.0093654245
0.061917398 -0.07003922 0.0093494467
0.060284585 -0.06843096 0.008322306
-0.060494743 0.056193635 0.0064745834
-0.061276622 0.057549231 0.0064728763
-0.062959559 0.059283677 0.0069474569
-0.064374588 0.060740627 0.0074261371
0.064868927 -0.069289275 0.009465348
0.063835293 -0.068215668 0.0093662562
0.062435001 -0.066736542 0.0084281592
-0.059634183 0.059488449 0.0065657562
-0.061113495 0.061192565 0.0068591712
-0.062614106 0.062872142 0.0075266743
0.06703724 -0.067456506 0.0095744105
0.065787889 -0.066418596 0.009216994
0.064416826 -0.065122791 0.008526681
-0.057985745 0.061785337 0.0066654859
-0.059226308 0.063058019 0.0068965815
-0.060834672 0.064687446 0.0076219887
0.06866236 -0.066148721 0.0096549178
0.067419745 -0.064841487 0.0093027661
0.066244096 -0.063583024 0.0086184824
-0.056081202 0.063362099 0.0067606624
-0.057591625 0.06463787 0.0069824979
-0.059205007 0.066262454 0.0077076415
0.071005769 -0.06449718 0.0097666392
0.069227725 -0.063223712 0.0093286801
0.067880459 -0.062001564 0.0087044658
-0.054449387 0.064675272 0.0068415087
-0.055917095 0.066339411 0.0071297847
-0.057303764 0.068099916 0.0078075342
0.074839987 -0.064208277 0.0099044396
0.072989993 -0.063017547 0.0098627536
0.071071312 -0.061360247 0.0090995692
0.069789536 -0.060156498 0.0088048251
-0.052540295 0.066520326 0.0069418531
-0.05395725 0.06807825 0.0071221311
-0.055402476 0.06993743 0.0079074726
0.078035235 -0.064843528 0.010002951
0.076457568 -0.063345797 0.0099763963
0.074619658 -0.061442547 0.0099483905
0.072937749 -0.05963004 0.0092569347
0.071698591 -0.058311496 0.0089051398
-0.050894864 0.068638384 0.0070381435
-0.052139383 0.069808923 0.0071989615
-0.053641416 0.071496129 0.0078972643
-0.054551475 0.072862469 0.0079913875
0.079434976 -0.063321784 0.010079662
0.07808724 -0.061770801 0.010062049
0.076249287 -0.059867583 0.010034042
0.074571833 -0.05805077 0.0093428129
0.073334947 -0.056730028 0.0089911381
-0.050313059 0.071311884 0.0071081193
-0.051972199 0.072950572 0.00774852
-0.053193431 0.074174963 0.0080627548
0.080486491 -0.062080268 0.010139118
0.079178184 -0.060453646 0.010124261
0.078043729 -0.058028191 0.010130316
0.076415621 -0.056177702 0.0096915904
0.075247079 -0.0547061 0.0090949237
-0.048667625 0.073429942 0.0072044237
-0.050113354 0.074859373 0.007681516
-0.051292174 0.076012425 0.0081626782
0.079789251 -0.055920728 0.010229894
0.078298979 -0.054327182 0.0098745516
0.076747328 -0.052520446 0.0091874991
-0.046567664 0.075233258 0.0073105702
-0.048164859 0.076630183 0.0079486119
-0.049662556 0.077587388 0.0082483301
0.081418909 -0.054345723 0.010315547
0.079930864 -0.052750017 0.0099603087
0.078525826 -0.051185451 0.0092738019
-0.04495503 0.076752305 0.0075765355
-0.046685796 0.07821843 0.0082628308
0.086235456 -0.053895913 0.010490266
0.083584532 -0.052673258 0.010421508
0.081834726 -0.050910018 0.010060373
0.080434918 -0.049340405 0.0093741463
-0.041076757 0.078127138 0.0075541362
-0.043151982 0.078593142 0.0077413702
-0.044809785 0.080174804 0.0084641539
0.087321877 -0.052845914 0.010547378
0.085483976 -0.050942671 0.010519372
0.083738588 -0.049070027 0.010160422
0.082344003 -0.04749535 0.009474461
-0.039985832 0.079181477 0.007611474
-0.041244879 0.080436312 0.0078415982
-0.042908534 0.082012266 0.0085640922
0.087113634 -0.049367659 0.01060501
0.085498296 -0.047531787 0.0098050991
0.083980359 -0.045913883 0.0095604602
-0.03808127 0.080758229 0.0077066366
-0.039572399 0.081941813 0.0080942074
-0.041278884 0.083587281 0.008649745
0.088741414 -0.047742859 0.0099910041
0.087198548 -0.045970514 0.0096705453
0.085565783 -0.044170521 0.0096477093
-0.036449499 0.082071364 0.0077874959
-0.037824489 0.083678775 0.0083418284
-0.039293136 0.085155971 0.0087475684
0.089056723 -0.044113576 0.0099361343
0.087262124 -0.042214412 0.0097427946
0.0867621 -0.040058605 0.0097656632
-0.034250297 0.083764948 0.0078950506
-0.035793636 0.085293621 0.0085135531
-0.037213821 0.086990334 0.0088535706
0.090810098 -0.042235717 0.010532065
0.089171201 -0.04036935 0.0098431231
0.087852992 -0.039004307 0.009823001
-0.031313106 0.084396422 0.0080082174
-0.032367658 0.085488461 0.007992194
-0.034059085 0.087049522 0.0087134317
-0.03561908 0.088756874 0.0089415824
-0.036616296 0.090721674 0.0089437673
0.09258271 -0.040685002 0.010177413
0.090807565 -0.038787887 0.0099291215
0.089387558 -0.03709897 0.0099115307
-0.029356768 0.085864902 0.0081031732
-0.03073957 0.087326437 0.0082646329
-0.032325596 0.088879786 0.0089146486
-0.034040038 0.090349667 0.0090258289
0.092716657 -0.036942836 0.010029451
0.091134779 -0.035304781 0.010005349
-0.02721395 0.08739844 0.0082057957
-0.028946264 0.08900293 0.0083188443
-0.030355608 0.090860136 0.0088289548
0.094462812 -0.035078447 0.010624865
0.092780232 -0.033186737 0.010101655
-0.024276754 0.088029906 0.0083189607
-0.025331307 0.089121945 0.0083029391
-0.026913172 0.090759985 0.0082788514
-0.02850713 0.091682628 0.0082409736
0.096262105 -0.033516321 0.01021578
0.094416589 -0.031605273 0.010187654
0.093366563 -0.030244924 0.010176724
-0.022372207 0.089606665 0.0084141381
-0.023694951 0.090703405 0.0083889375
-0.025204077 0.092110157 0.008363043
0.096052937 -0.030023798 0.010273652
0.094471082 -0.028385757 0.010249565
0.093689241 -0.027030116 0.010247814
-0.020740386 0.090919837 0.0084949993
-0.02206089 0.092150711 0.0084723597
0.097995959 -0.028255386 0.010945591
0.096296452 -0.026540598 0.010597198
0.094920613 -0.024880392 0.010330467
0.094561934 -0.023019848 0.010352718
0.098062746 -0.024699019 0.011109478
0.096707389 -0.023057595 0.010426137
0.095652826 -0.021965552 0.010410054
0.09984912 -0.023116253 0.010755922
0.098343745 -0.021476131 0.010512137
0.097187355 -0.02006026 0.010498584
0.10025284 -0.01963108 0.010612481
0.098696165 -0.017725073 0.010594261
0.097907312 -0.015564227 0.010607255
0.10031642 -0.015874984 0.010684715
0.098828517 -0.013970155 0.0106688
0.10195276 -0.014293509 0.010770713
0.10010728 -0.012382409 0.010742587
0.099057265 -0.011022072 0.010731657
0.10201637 -0.010537366 0.010842931
0.10043451 -0.0088993115 0.010818844
0.099657185 -0.0072754323 0.01082223
0.10234361 -0.0070542693 0.01091916
0.10061959 -0.0051697367 0.010894769
0.10343904 -0.0057316734 0.01098162
0.10213445 -0.0035617452 0.010977077
0.10052011 -0.0015780845 0.010958287
0.098979838 0.00025098366 0.01093918
0.097397976 0.0018890296 0.010915092
0.0051755286 0.097470343 0.010512906
0.10314961 -0.0017009584 0.011046794
0.10192528 -6.9233807e-05 0.01103495
0.10034347 0.0015688624 0.011010862
0.09849795 0.0034799152 0.010982766
0.097725205 0.0053721289 0.010991319
0.10301623 0.00098510785 0.011092258
0.1014389 0.002891449 0.011073324
0.10040704 0.0053249612 0.011083095
0.098890856 0.0073197167 0.011067907
0.098325163 0.009118815 0.011081894
0.013959788 0.096482173 0.0097970944
0.012306777 0.097326644 0.010131039
0.010906578 0.098593958 0.01053163
0.10231613 0.0071700197 0.011183425
0.017171917 0.096067846 0.0099002989
0.01552726 0.097101197 0.0099628661
0.013617495 0.098553993 0.010551734
0.012155927 0.099485785 0.01079156
0.020829506 0.0955562 0.010017097
0.018942459 0.097036183 0.010252454
0.017217617 0.098658465 0.010825851
0.015332462 0.10000263 0.010910898
0.026528066 0.094114117 0.01018699
0.024472393 0.095275469 0.010228659
0.022432163 0.096666515 0.01049346
0.020901982 0.098420501 0.010973674
0.01918982 0.10035827 0.011050756
0.018348649 0.10231691 0.011058214
0.031596299 0.092414744 0.010330354
0.029739454 0.09365508 0.010289376
0.027881581 0.095107973 0.01036349
0.026006192 0.096653074 0.011050281
0.024161166 0.098472811 0.011187299
0.022585813 0.1001042 0.011163318
0.020741081 0.10160662 0.011127594
0.035073631 0.091816865 0.010439296
0.033255745 0.093173489 0.010583779
0.031499494 0.094833009 0.010905853
0.029738272 0.096503817 0.01134319
0.027795808 0.097971544 0.011303467
0.025247583 0.099522807 0.011244382
0.023672249 0.10115417 0.0112204
0.039878223 0.090390489 0.010578622
0.038095064 0.091457009 0.010536968
0.036497045 0.093208149 0.010822336
0.034802407 0.094756231 0.011235305
0.033212636 0.096576333 0.011464537
0.03135889 0.097544424 0.011418552
0.045746449 0.088408642 0.010744351
0.043889597 0.089648984 0.010703373
0.041762426 0.091131859 0.010720118
0.039881334 0.092868567 0.011041938
0.038241941 0.094644554 0.011525213
0.03641995 0.096653618 0.01157676
0.034835514 0.097750559 0.011542472
0.096093856 0.038947567 0.011560989
0.094466537 0.041069493 0.011544337
0.092997387 0.04302761 0.0115301
0.052396551 0.085071214 0.010911788
0.051073801 0.086167969 0.010886558
0.048928764 0.087669589 0.010840506
0.047344945 0.089602262 0.011072029
0.045557704 0.091307804 0.011459063
0.059305754 0.081192493 0.011078081
0.058251195 0.08228454 0.011062029
0.055954155 0.083935142 0.011013503
0.054135971 0.08573658 0.011166236
0.052556552 0.08747758 0.011462579
0.050576441 0.089127988 0.01156794
0.087306306 0.055472922 0.011565612
0.08595562 0.05718359 0.011550861
0.084415302 0.059012603 0.011531754
0.082569838 0.060923688 0.011503658
0.08099705 0.063098334 0.011489862
0.079415224 0.064736418 0.011465776
0.077569716 0.06664747 0.011437665
0.075724237 0.068558559 0.011409554
0.074142374 0.070196606 0.011385466
0.072560504 0.071834661 0.011361378
0.070357442 0.073752031 0.011321056
0.068596825 0.075393252 0.011290857
0.066742234 0.07676772 0.01125244
0.064625815 0.078522526 0.011212087
0.06277851 0.080326281 0.011181916
0.061196685 0.081964374 0.011157828
0.059614819 0.083602414 0.011133743
0.057758655 0.085484594 0.011167272
0.083718903 0.062245339 0.01156799
0.082087941 0.064152621 0.011547214
0.080506109 0.065790713 0.011523128
0.0786606 0.067701764 0.011495045
0.076815128 0.069612861 0.011466921
0.075233258 0.071250908 0.011442834
0.073651403 0.072888955 0.011418746
-0.010207335 -0.073167033 0.0047986964
-0.0032698375 -0.077061683 0.0049656816
-0.0048627239 -0.075686291 0.0049363142
-0.0070166048 -0.074178569 0.0048900619
-0.008847259 -0.072382547 0.0048603145
-4.0717354e-05 -0.0772532 0.0050736228
-0.0016359173 -0.076012529 0.0050417194
-0.0032242208 -0.074367717 0.0050175283
0.0034698425 -0.076731078 0.0052046068
0.0018693255 -0.075804703 0.0051666172
0.00028102458 -0.074159898 0.0051424261
0.0090898369 -0.078895867 0.00535833
0.007492377 -0.077789888 0.0053237872
0.0053654467 -0.076135658 0.005281209
0.0035124144 -0.074216731 0.0052529629
0.012325756 -0.078683324 0.005474058
0.010723768 -0.077846721 0.0054343687
0.0091354186 -0.076201953 0.0054101767
0.0072723962 -0.074343294 0.0050677154
0.014231268 -0.077504203 0.0055618472
0.012640662 -0.075994126 0.0055350745
0.011045334 -0.074414127 0.0051758401
0.018268233 -0.077709928 0.0056974338
0.016136779 -0.076325081 0.0056496812
0.014283701 -0.074406192 0.0056214342
0.022821723 -0.079227217 0.0058263931
0.021223513 -0.078166112 0.0057909852
0.019632896 -0.076656029 0.0057642274
0.017779825 -0.074737154 0.005736026
0.026328478 -0.078929581 0.0059530511
0.024726486 -0.07809297 0.0059133777
0.023146078 -0.076498464 0.0056382632
0.021491164 -0.07468269 0.0052932845
0.028474033 -0.078036398 0.0060438309
0.026648346 -0.076262608 0.0059026191
0.025093403 -0.074793167 0.0049867341
0.031784426 -0.078055419 0.0061577763
0.0301395 -0.076571338 0.0061286893
0.028314579 -0.074761339 0.0055433717
-0.069642588 0.027852995 0.0046295067
0.035511456 -0.077474229 0.0062973313
0.033909462 -0.076637618 0.0062576421
0.032068968 -0.074754901 0.0060415035
-0.068679981 0.029746884 0.0046980893
-0.069399215 0.031621344 0.0047081597
0.037416968 -0.076295108 0.0063851206
0.035705484 -0.074590228 0.0060848705
0.033826012 -0.072925031 0.0054232534
-0.068474256 0.033221897 0.0047699707
-0.069259293 0.034583084 0.0047682188
0.040116619 -0.075938381 0.0064850133
0.03905775 -0.074841864 0.0064688995
0.037262596 -0.073049001 0.0057731234
-0.068284877 0.036452264 0.0048367167
0.0422161 -0.07466644 0.0065812338
0.040778097 -0.073130533 0.0063600494
0.039217364 -0.071253523 0.0055405041
-0.066776462 0.038042568 0.004918484
-0.067835361 0.039139103 0.0049023414
0.046615917 -0.073896877 0.0067475373
0.04447259 -0.073212452 0.0066863364
0.042811073 -0.071495101 0.0060240449
0.041142095 -0.069393337 0.0056416485
-0.066183195 0.041265812 0.0049990527
0.048032578 -0.072951704 0.0068140794
0.04638765 -0.071467623 0.0067849932
0.044652481 -0.069725677 0.0057567051
-0.064582109 0.043555129 0.0050970623
0.049886085 -0.071663857 0.0069021052
0.048052408 -0.069908641 0.0067047225
0.046302255 -0.068131238 0.0058434112
-0.063152671 0.045254614 0.0051781293
-0.064202443 0.046889924 0.0051723067
0.053407241 -0.070513181 0.0070451703
0.051800705 -0.069945946 0.0070003057
0.050008461 -0.068100393 0.0065349676
0.048226986 -0.066271052 0.0059445538
-0.061235737 0.047107253 0.0052788807
-0.062873386 0.049022358 0.005258006
0.055045757 -0.06919463 0.0071263397
0.053503569 -0.067874782 0.0067640785
0.051746517 -0.066062413 0.0060700076
0.049990017 -0.064250328 0.0052925628
-0.059318837 0.04895984 0.0053796163
-0.061171923 0.050878737 0.0053513553
-0.061683107 0.05250458 0.0053640092
0.056875948 -0.067917928 0.0072133457
0.055189017 -0.066325419 0.0066009928
0.053430162 -0.064501792 0.0059348671
-0.057749815 0.050625257 0.0052145785
-0.059528835 0.052466705 0.0054377159
-0.060583171 0.053832594 0.0054267477
0.060198613 -0.067129456 0.0073428033
0.05859204 -0.066562258 0.0072979089
0.056863964 -0.064760193 0.006521211
0.055098694 -0.062922508 0.0059107495
-0.057885785 0.054054637 0.0055240607
-0.059474137 0.055699404 0.0054998687
-0.059985317 0.057325251 0.0055125225
0.061567862 -0.06580615 0.0074147582
0.060508933 -0.064709663 0.0073986743
0.058820438 -0.062930375 0.0064352518
0.057054434 -0.061083011 0.005845774
0.055270556 -0.059220351 0.0053185327
-0.055968903 0.055907238 0.005624841
-0.057557203 0.057552043 0.0056006489
-0.058725655 0.058996916 0.0055871941
0.063806064 -0.064066991 0.0075244876
0.062447052 -0.062873185 0.0073885974
0.060756139 -0.061079942 0.0064740423
0.059011973 -0.059241779 0.0057809269
0.057203099 -0.057352632 0.0054200953
-0.054051962 0.05775987 0.0057255477
-0.055640314 0.059404638 0.0057013566
-0.057228647 0.061049394 0.0056771627
0.065392531 -0.062639751 0.0076058796
0.064134076 -0.061316065 0.0072534867
0.062405922 -0.05948551 0.0065607484
0.06070751 -0.057671599 0.0056463853
0.058859602 -0.055751681 0.0055071488
-0.052212548 0.059159853 0.0055649923
-0.053997267 0.060992569 0.0057877153
-0.055587877 0.062502645 0.0057609128
0.067035571 -0.061051808 0.0076922383
0.065847486 -0.059771501 0.0070078941
0.064088129 -0.05791181 0.0064813904
0.062384229 -0.056085385 0.005622643
0.060600929 -0.05448433 0.0055909147
-0.052354179 0.062580541 0.005874061
-0.053677782 0.063951179 0.0058538932
0.068952508 -0.059199173 0.0077929748
0.067769565 -0.057913892 0.0071089109
0.066069111 -0.056082722 0.0063128835
0.064316802 -0.054217614 0.0057242215
0.062887259 -0.05310582 0.0056955814
-0.050437283 0.064433135 0.0059748264
-0.051760897 0.065803774 0.0059546288
0.070869401 -0.057346582 0.0078937104
0.069691695 -0.056056254 0.0072099129
0.068063609 -0.05425521 0.0061031096
0.066249348 -0.052349903 0.005825771
0.064629674 -0.051778056 0.0057805004
-0.048520382 0.066285722 0.0060755471
-0.050108727 0.067930482 0.006051355
0.072512448 -0.055758651 0.0079800701
0.071339227 -0.054463953 0.0072964989
0.069718406 -0.052655932 0.0061900783
0.067905813 -0.050748996 0.0059128376
-0.046877343 0.067873657 0.0061618919
-0.048465643 0.069518462 0.0061377008
-0.049524523 0.070614979 0.006121573
0.07427419 -0.053980298 0.0080740638
0.073241554 -0.052597616 0.0074803913
0.071506187 -0.051032633 0.0063398229
0.069562279 -0.049148101 0.0059998902
0.068770833 -0.047775801 0.0059981393
-0.04483423 0.069733016 0.00619015
-0.046548743 0.071371049 0.006238481
-0.047872368 0.072741702 0.0062182844
0.075533845 -0.052308619 0.0081487363
0.07504908 -0.050693884 0.0080509027
0.073317267 -0.049087215 0.0063308729
0.07149481 -0.047280371 0.0061014695
0.070160404 -0.045898538 0.0060811518
-0.042896777 0.071503155 0.0058666291
-0.04463185 0.073223643 0.0063391877
-0.046012063 0.074433617 0.0063140653
0.077724591 -0.050191373 0.0082638767
0.076748013 -0.049125232 0.0079164049
0.075193785 -0.047310691 0.0066456208
0.073427409 -0.045412626 0.0062030191
0.072088376 -0.044302389 0.0061774803
-0.041347753 0.07326334 0.0055359257
-0.042988766 0.074811615 0.0064255474
-0.044047695 0.075908102 0.0064094048
0.079367675 -0.048603393 0.0083502233
0.078393295 -0.047535148 0.0080028847
0.076785542 -0.045692757 0.0069809454
0.075083867 -0.043811716 0.0062900726
0.07374946 -0.042429879 0.0062697688
-0.037734952 0.072956435 0.0049044332
-0.039698925 0.07485687 0.0056225741
-0.041345727 0.07639955 0.0065118922
-0.042404603 0.077496074 0.0064957486
0.081284568 -0.046750799 0.0084509589
0.080290735 -0.045673873 0.0081865285
0.078677118 -0.043929037 0.0072125765
0.076740332 -0.042210814 0.0063771233
0.075274788 -0.040554997 0.006357397
-0.035930131 0.074709997 0.005589637
-0.037710913 0.076593548 0.0060155373
-0.03942883 0.078252144 0.0066126734
0.083201461 -0.044898208 0.0085517094
0.082142584 -0.043801688 0.0085355965
0.080427118 -0.041970052 0.0074327067
0.078672886 -0.040343106 0.0064787026
0.077071577 -0.038684901 0.006454315
-0.034007691 0.076685138 0.005769847
-0.035710443 0.07829152 0.0064915968
-0.037514202 0.079970047 0.0067107687
0.084570698 -0.043574896 0.0086236643
0.083785631 -0.04221376 0.0086219413
0.082157299 -0.040342424 0.007766596
0.08054629 -0.038464054 0.0068008369
0.079004154 -0.036817133 0.0065558795
-0.030543383 0.076456234 0.0056350343
-0.032357916 0.078279577 0.0058565531
-0.034065682 0.079881109 0.0065780403
-0.035604119 0.081418596 0.0068037491
0.085579731 -0.040383458 0.0087180454
0.083945371 -0.03865879 0.0081933364
0.082141116 -0.03685471 0.0071082888
0.080660619 -0.035216238 0.0066429321
-0.029079989 0.078101069 0.0058663459
-0.030724594 0.080240145 0.0062574307
-0.032360375 0.081788473 0.0068457015
-0.033692721 0.082947895 0.0068982774
0.08735472 -0.038234401 0.0088193892
0.085655041 -0.036680363 0.00836075
0.08398553 -0.034979705 0.0075127278
0.082173176 -0.033365846 0.0067296727
-0.027236737 0.080253258 0.0062131761
-0.028911453 0.081768043 0.0067912331
-0.030446712 0.083753131 0.007025403
0.088728495 -0.036641721 0.0088965194
0.087481864 -0.035009816 0.0086336844
0.08584173 -0.033110879 0.0078618787
0.083982736 -0.031471256 0.0068274932
0.083200485 -0.029555786 0.0068361834
-0.023574572 0.080030471 0.005620678
-0.025487011 0.082107089 0.0064153867
-0.027215328 0.083696298 0.0071359398
-0.028730625 0.085108809 0.0071099363
0.090376124 -0.03478438 0.0089880545
0.089126587 -0.033420276 0.0087201567
0.08749146 -0.031516481 0.00794857
0.085843377 -0.029599255 0.0071768472
0.084314011 -0.027945297 0.0069046849
-0.02182846 0.08182855 0.0057859849
-0.023838907 0.083699912 0.0065020258
-0.025572285 0.085284233 0.0072223004
-0.026900429 0.086385496 0.0071969423
0.091471516 -0.033725731 0.0090456177
0.09123414 -0.031835265 0.0090727229
0.08950974 -0.030116759 0.0084732724
0.087400742 -0.02799752 0.0075940713
0.085703596 -0.026068039 0.0069876537
-0.020151479 0.083352111 0.0060390942
-0.022071622 0.085408621 0.0068451138
-0.023655348 0.087136865 0.0073230667
-0.02553577 0.087439403 0.007263721
0.092723832 -0.029759575 0.0091628283
0.091130666 -0.02813853 0.0089236125
0.089348421 -0.026386986 0.0080313431
0.087768517 -0.024561275 0.0073949881
0.086292543 -0.023361662 0.0070584426
-0.018444829 0.085340396 0.0064686788
-0.020017691 0.087004453 0.0070887459
-0.021740729 0.088854782 0.0074211769
0.092727445 -0.026364267 0.0092262793
0.091258086 -0.024552656 0.0086532887
0.089450397 -0.022688998 0.0076804338
0.087908491 -0.020945041 0.0071593113
-0.014810423 0.085300371 0.0060216039
-0.016520081 0.08720056 0.0065698512
-0.018242333 0.088658504 0.0075383782
-0.019830676 0.090303272 0.0075141415
0.093785398 -0.02433485 0.009300624
0.093030751 -0.02270318 0.0092215957
0.091235459 -0.021025181 0.008106689
0.089623883 -0.019073462 0.0072534615
0.088560939 -0.017696427 0.0072424188
-0.010991136 0.085116915 0.0057212012
-0.013066866 0.087096937 0.0061868075
-0.014870307 0.088794999 0.0066565424
-0.016325435 0.090511091 0.0076391445
-0.018178482 0.092430033 0.0076108985
0.09492179 -0.020851698 0.0094048278
0.09306971 -0.019172285 0.0084964624
