# .PCD v0.7 - Point Cloud Data file format
VERSION 0.7
FIELDS x y z
SIZE 4 4 4
TYPE F F F
COUNT 1 1 1
WIDTH 1279
HEIGHT 1
VIEWPOINT 0 0 0 1 0 0 0
POINTS 1279
DATA ascii
-0.046958745 0.065453798 0.010268426
0.071084879 -0.049176574 0.012443326
0.069007121 -0.047872182 0.011728804
-0.043604836 0.066850759 0.0099038435
-0.044558637 0.067805193 0.0098881079
0.073002115 -0.047288779 0.012428205
-0.041897085 0.067686476 0.010419858
-0.043922979 0.068440951 0.0099201202
0.074890137 -0.04537072 0.012634982
0.074029073 -0.043867256 0.011964506
-0.040251572 0.069214158 0.010723126
0.076475613 -0.043784998 0.012714855
0.075300425 -0.042595696 0.012028531
0.077890217 -0.042189769 0.012872513
0.076889619 -0.041006267 0.012108563
-0.034704879 0.071935341 0.010287509
-0.035976619 0.07320793 0.010266499
0.079037957 -0.040632185 0.012687071
0.078272574 -0.039027963 0.012855431
-0.031208191 0.072251923 0.010409802
-0.033036266 0.072794646 0.010691389
-0.03509742 0.073560275 0.01130255
0.079911768 -0.035189148 0.013308738
0.079278097 -0.034555059 0.013298282
-0.029936876 0.073523439 0.010473826
-0.031055037 0.074604146 0.011121841
0.080861971 -0.034238808 0.013356604
0.080279209 -0.033375289 0.012351034
-0.028029755 0.074794732 0.010559103
-0.029376814 0.075960852 0.011334354
0.082445674 -0.032654852 0.01343634
0.081436582 -0.031436499 0.012797751
-0.026213523 0.076338641 0.010645963
-0.027653601 0.077677101 0.011621141
0.084662832 -0.030754315 0.013542644
0.083133616 -0.029510019 0.013178987
0.081973739 -0.027969737 0.012499128
-0.022626063 0.077018633 0.010777432
-0.024124045 0.077840023 0.011186006
-0.025658106 0.079070672 0.011711439
0.086880125 -0.029487547 0.013638227
0.085093834 -0.027866643 0.013462978
0.08383771 -0.026205324 0.012841477
0.083244734 -0.024472095 0.012600831
-0.020676956 0.078324594 0.011228556
-0.02274375 0.079365268 0.011813898
0.087196402 -0.026001597 0.013707771
0.085689284 -0.024441108 0.013239035
0.084304079 -0.022564411 0.012668533
-0.01693186 0.078799918 0.011198108
-0.018722525 0.079745777 0.011621258
0.08878006 -0.024417685 0.013787536
0.087195896 -0.022832461 0.013761379
0.085439779 -0.020967182 0.012900284
0.084515505 -0.019384352 0.012729391
-0.014043553 0.079241194 0.011102048
-0.015544925 0.080042258 0.011565739
-0.017041838 0.080841877 0.012029541
0.088779598 -0.02124851 0.013841145
0.086917855 -0.019354695 0.013588537
0.085423462 -0.017567486 0.012790488
-0.01220393 0.08010494 0.011321122
-0.013874047 0.081051841 0.012139027
0.090679988 -0.019347813 0.013936846
0.088699803 -0.017524742 0.013901468
0.086957008 -0.015554801 0.013431803
0.085786268 -0.014296603 0.012857952
-0.0086397855 0.080829024 0.011309616
-0.010150445 0.081468739 0.011770261
-0.011973513 0.082107425 0.012220442
0.087511286 -0.013642018 0.013927418
0.087693185 -0.011753269 0.01296475
-0.008640063 0.08273714 0.011341899
0.088627361 -0.0096302442 0.013699058
0.087745659 -0.0086992504 0.013418436
-0.0027869146 0.083054408 0.012543688
-0.0043263519 0.083942704 0.011906838
0.090044789 -0.0085724145 0.014097906
0.088846304 -0.0071447766 0.013706717
0.087480277 -0.0053928802 0.013065246
0.0018503178 0.081142709 0.011665733
0.00045003049 0.08217752 0.011886565
-0.0014379222 0.082870759 0.012156819
-0.0034207827 0.084956154 0.012554673
0.090406328 -0.0053128693 0.014165135
0.088797122 -0.0034994753 0.014030822
0.087448977 -0.0015804135 0.013295466
0.0056649363 0.081141144 0.011793271
0.0037710499 0.081897587 0.011867806
0.0020389566 0.083142422 0.012563597
0.090405717 -0.0015099071 0.014229464
0.088837482 0.00031140546 0.013874292
0.0874791 0.0022395016 0.013194349
0.0094795544 0.081139587 0.011920808
0.0075839842 0.081895962 0.011995304
0.005753506 0.083248451 0.01270748
0.0038653901 0.084002391 0.012782189
0.092577681 0.00030015159 0.014332723
0.090676673 0.0022024189 0.014301322
0.088836908 0.0041188048 0.013938641
0.087478518 0.0060556866 0.013258884
0.086418629 0.0079642329 0.013255718
0.01329417 0.081138022 0.012048346
0.011417406 0.081816129 0.012372307
0.0095676202 0.083207749 0.012959423
0.0076667843 0.084000818 0.012909289
0.0924187 0.0041032163 0.01439175
0.090676114 0.006005418 0.014365653
0.088891685 0.0076439376 0.01419073
0.087597743 0.0093642753 0.013819184
0.086418211 0.010508333 0.013298762
0.014735167 0.082093574 0.012713095
0.012735499 0.08315365 0.013064463
0.093210377 0.0060043712 0.014450396
0.09194304 0.0072725518 0.014429453
0.090358868 0.0088577699 0.014403296
0.088901363 0.010823258 0.014387826
0.086992726 0.01239255 0.013683388
0.085993811 0.014324725 0.013349131
0.019969765 0.080817252 0.012266164
0.018072248 0.081825525 0.012386529
0.016428348 0.08309035 0.012900958
0.089408003 0.012344257 0.014430483
0.08877413 0.014245999 0.01444147
0.08697214 0.016194491 0.013858194
0.085417978 0.018232001 0.013395973
0.084509484 0.020049626 0.013396334
0.023720838 0.080370456 0.012384037
0.021579254 0.081631474 0.012778514
0.019704688 0.08336205 0.01330102
0.01843735 0.084630229 0.013280106
0.086911827 0.019972645 0.014253677
0.08543323 0.021621963 0.013620625
0.084145658 0.02332077 0.013439528
0.083237156 0.025138395 0.013439889
0.0288876 0.078996427 0.013284094
0.026981201 0.079974048 0.01315348
0.025090357 0.081141435 0.013443556
0.023189349 0.083043694 0.013412185
0.021288348 0.084945954 0.013380785
0.019915372 0.086531095 0.013361707
0.085462376 0.024819449 0.013508918
0.083554782 0.026728321 0.013477417
0.082282946 0.028636931 0.013467168
0.035546873 0.07540454 0.012695502
0.034169663 0.07689634 0.013008241
0.032373432 0.077962473 0.013299759
0.085143968 0.028317757 0.013557448
0.083236367 0.030226635 0.013525947
0.0814877 0.032135446 0.013499781
0.080056958 0.034044161 0.013484227
0.078785181 0.035634756 0.013468581
0.077195458 0.037543494 0.013447721
0.042540826 0.072221525 0.012875521
0.041269165 0.073070087 0.012847376
0.039450325 0.074362189 0.012951348
0.037447799 0.075845048 0.01343363
0.035798568 0.07745605 0.013539191
0.083069019 0.033897117 0.014583145
0.081484854 0.03548234 0.014556988
0.07993456 0.037102133 0.014310193
0.078048699 0.039023571 0.014168397
0.076193035 0.04098469 0.013805963
0.074814282 0.042661037 0.013654799
0.073570505 0.044477716 0.013443805
0.071790002 0.046768162 0.013423029
0.055257536 0.06331183 0.013150043
0.053985808 0.064584412 0.013129062
0.052078206 0.066493288 0.013097561
0.050170708 0.067766145 0.013055299
0.048581045 0.069356874 0.013029044
0.046446387 0.071220398 0.012989189
0.044448011 0.072856747 0.012950066
0.042519998 0.074541964 0.013692388
0.040930334 0.076064251 0.013887364
0.0393463 0.07680437 0.013846921
0.082751825 0.036749512 0.014620788
0.081167661 0.038334735 0.014594631
0.067974359 0.053766116 0.013413833
0.066384688 0.055356845 0.013387578
0.064477086 0.057265725 0.013356077
0.062342439 0.05912926 0.013316222
0.060591213 0.060605623 0.013568533
0.058892332 0.061976787 0.013499187
0.057138473 0.063863255 0.013555836
0.055209778 0.065684691 0.01385572
0.05330658 0.067589156 0.013824286
0.051550422 0.069437996 0.014005305
0.049867824 0.07087978 0.013669685
0.048238717 0.072291516 0.013567613
-0.043218985 -0.063727908 0.0067068562
-0.044495117 -0.062450919 0.0066858083
-0.046090282 -0.060854688 0.0066594542
-0.048004482 -0.058939207 0.0066278526
-0.049918681 -0.057023715 0.0065962514
-0.051832881 -0.055108242 0.0065646498
-0.053428046 -0.053512 0.0065382957
-0.054704178 -0.052235015 0.0065172184
-0.035243582 -0.0691562 0.006881739
-0.036200684 -0.068198457 0.0068659387
-0.038178589 -0.066729695 0.0068246359
-0.040028974 -0.065005712 0.0067919656
-0.041943174 -0.063090235 0.0067603639
-0.043308608 -0.061235297 0.0064124558
-0.044905592 -0.059637211 0.0063861283
-0.046821993 -0.057719532 0.0063544936
-0.048714217 -0.055948149 0.0064045694
-0.050876066 -0.054151271 0.0066128513
-0.052471228 -0.052555032 0.0065864972
-0.054066397 -0.050958805 0.0065601729
-0.055980593 -0.049043316 0.0065285712
-0.057894796 -0.047127832 0.0064969696
-0.059489962 -0.045531601 0.0064705852
-0.060766164 -0.04361634 0.0064603086
-0.062361326 -0.042020105 0.0064339843
-0.027268358 -0.073308006 0.0070781936
-0.029182486 -0.071711615 0.0070411926
-0.031324457 -0.070160724 0.0069958312
-0.033088315 -0.06826777 0.0066352934
-0.034724966 -0.066703327 0.0064402549
-0.036384568 -0.065153696 0.0061607901
-0.038303733 -0.063233279 0.0061290907
-0.040222906 -0.061312862 0.0060974807
-0.041569054 -0.059437618 0.0058339401
-0.043169718 -0.057835873 0.0058075171
-0.045090511 -0.055913787 0.0057757851
-0.047174487 -0.054039653 0.0058379089
-0.049047735 -0.052658074 0.0060321246
-0.050395466 -0.050908573 0.0060469592
-0.052276894 -0.049102955 0.0062344912
-0.054142959 -0.047162242 0.0063717053
-0.056074321 -0.045507099 0.0062850527
-0.057446998 -0.043754529 0.0059685791
-0.059251897 -0.042049881 0.006287328
-0.061404616 -0.040424917 0.0064929859
-0.063318819 -0.038509432 0.0064613847
-0.064595051 -0.036594227 0.0064510773
-0.065871224 -0.034998108 0.0064353999
-0.067147434 -0.033402029 0.006419722
-0.0205692 -0.0766083 0.0072463998
-0.022392133 -0.075270265 0.0072080861
-0.02439745 -0.073628299 0.0071687968
-0.025992617 -0.072032064 0.0071424721
-0.027587783 -0.070435829 0.0071161473
-0.029576171 -0.068588853 0.0067473277
-0.031325277 -0.066486582 0.0060572349
-0.032925937 -0.064884841 0.0060308119
-0.034514911 -0.063080713 0.0058652274
-0.052454047 -0.045343589 0.0057083648
-0.054054711 -0.043741845 0.0056819418
-0.055655375 -0.042140104 0.0056555183
-0.057576172 -0.040218011 0.0056238165
-0.059707578 -0.038580246 0.0059138215
-0.061487533 -0.036779426 0.0063017127
-0.062820062 -0.035058439 0.0063934973
-0.06459555 -0.03340308 0.0065050786
-0.066509753 -0.031487592 0.006473477
-0.068150528 -0.029481018 0.0064525534
-0.06938123 -0.027337875 0.006447616
-0.013551102 -0.079376847 0.0074342536
-0.014827164 -0.078525327 0.0074059758
-0.016650144 -0.077187344 0.0073676622
-0.018737227 -0.075647764 0.0068791704
-0.020718513 -0.07380493 0.0065104947
-0.022682201 -0.071933851 0.0062541058
-0.024282865 -0.07033211 0.0062276833
-0.025883529 -0.068730369 0.0062012598
-0.027804326 -0.066808276 0.0061695576
-0.061098114 -0.033491995 0.0056198295
-0.062868156 -0.031533528 0.0060385023
-0.064709909 -0.029597623 0.00623208
-0.066510327 -0.027658172 0.0065382496
-0.06842453 -0.025742682 0.0065066479
-0.069828324 -0.024082718 0.0064877379
-0.070976928 -0.022231355 0.0064806635
-0.010361164 -0.080016375 0.0075301039
-0.011933698 -0.078864641 0.0073540844
-0.013315125 -0.077261314 0.0069775754
-0.014980474 -0.075753249 0.0065582395
-0.01695982 -0.073907018 0.0061897393
-0.018963873 -0.072080985 0.0057088537
-0.064940289 -0.025805211 0.0056213737
-0.066684872 -0.024015503 0.0060936827
-0.068010479 -0.022461653 0.0062423972
-0.070020184 -0.0209553 0.0065342649
-0.071742989 -0.019103721 0.006507948
-0.072891548 -0.017443815 0.0064976336
-0.0065332917 -0.080443457 0.0076508783
-0.0083137276 -0.079154581 0.0073402664
-0.010023948 -0.077309519 0.0067684208
-0.011570171 -0.075297028 0.006282893
-0.013322095 -0.073970959 0.0060322792
-0.015172128 -0.072156467 0.0055007692
-0.066378005 -0.020740634 0.0057590823
-0.068223998 -0.019053245 0.0062929871
-0.070339717 -0.017444901 0.0065829894
-0.072094396 -0.015529452 0.0065566972
-0.073317446 -0.013614246 0.0065481695
-0.0011104095 -0.081615798 0.0078123771
-0.002960633 -0.080785319 0.0077645569
-0.0046651335 -0.0794615 0.0073964065
-0.0063567935 -0.077382855 0.0067078681
-0.0080563575 -0.075294763 0.0060191741
-0.01003301 -0.073443867 0.0056508584
-0.066542052 -0.017158726 0.0057140966
-0.068623342 -0.015544809 0.0061165979
-0.070420273 -0.013619474 0.0064226082
-0.071935453 -0.012019246 0.0066214073
-0.073105313 -0.010423214 0.0066092885
0.00239835 -0.081298143 0.0079351049
0.00047111619 -0.080686428 0.0077698245
-0.0011931738 -0.079225332 0.0071829478
-0.0028361187 -0.077705912 0.0068201534
-0.0046817856 -0.075928211 0.0061630392
-0.006499941 -0.073766641 0.0057635475
-0.068463318 -0.012034454 0.0057365326
-0.069942623 -0.010429993 0.0060478342
-0.071616963 -0.0085090902 0.0066914558
-0.073105887 -0.0065937932 0.0066740606
0.0042058462 -0.080422252 0.007867422
0.0022979099 -0.078961343 0.0070817843
0.00046563 -0.077184319 0.0064389938
-0.0012791685 -0.075858757 0.0061886888
-0.0029668692 -0.074089415 0.0058762366
-0.068143778 -0.0085121999 0.0058068191
-0.069943182 -0.006591802 0.0061126743
-0.071657941 -0.0046783951 0.006643693
-0.0732584 -0.0026731745 0.0067353034
-0.074170023 -0.00084924436 0.0067356434
0.0077572172 -0.080789752 0.0081229033
0.0061482466 -0.078935601 0.0073221317
0.0041349982 -0.077225469 0.0063942098
0.0021722419 -0.075376831 0.0060263257
-0.068144351 -0.0046695964 0.0058718268
-0.070024535 -0.0027495481 0.0059525985
-0.071761176 -0.001120248 0.0066686487
-0.073532276 0.00042692409 0.0067785382
-0.074489444 0.0020229369 0.006773538
0.012605849 -0.081302322 0.0082763806
0.011074669 -0.080791093 0.0082338369
0.0093862861 -0.079467282 0.0078662299
0.0079847854 -0.077227063 0.0065230019
0.0060264734 -0.075378388 0.0061551742
0.0038422158 -0.073963679 0.0061060516
-0.068286419 -0.0010979057 0.005784519
-0.070548847 0.00044234967 0.0063067647
-0.071761645 0.001980979 0.0067210998
-0.073532738 0.0036181286 0.00683254
-0.074489944 0.0052140872 0.0068275095
0.014519638 -0.080505311 0.0083538983
0.012886932 -0.079190113 0.0078211809
0.011220317 -0.077790514 0.0069551868
0.0095595382 -0.07570117 0.0062678633
0.0076322593 -0.074415088 0.0062251822
-0.067038834 0.00062806846 0.0054980288
-0.068465479 0.0020550787 0.0059748543
-0.070025519 0.0036523365 0.0060608946
-0.071700141 0.0055426899 0.0067039952
-0.073373862 0.0074474174 0.00690265
0.018092185 -0.080155782 0.0084792618
0.016397148 -0.078885376 0.0078880992
0.014581797 -0.077160515 0.0070365337
0.012828038 -0.075898133 0.0065167798
0.011486478 -0.074738026 0.0063485913
-0.066456154 0.0036821056 0.0054024379
-0.068184823 0.0055825631 0.0059327213
-0.070026107 0.0074934801 0.0061258362
-0.071660116 0.0093680667 0.0068812622
-0.073023506 0.0110214 0.0069748047
0.021537224 -0.080029525 0.0085965786
0.020082489 -0.078842767 0.0081927972
0.018282915 -0.077100053 0.0074254489
0.016311456 -0.075356551 0.0066106673
0.01463397 -0.07396815 0.0064668683
-0.066534579 0.0075453809 0.0052427687
-0.068185404 0.0094266282 0.0059977351
-0.069930725 0.011156924 0.0064550904
-0.071939245 0.012871836 0.0070424094
-0.072896443 0.014467794 0.007037349
0.02335413 -0.079153024 0.0085292226
0.021810541 -0.077394493 0.0076496312
0.020164201 -0.075358115 0.0067394767
0.018231232 -0.073883928 0.0065886131
-0.064646937 0.0094784284 0.0052274261
-0.066399179 0.011213139 0.0056984983
-0.068644166 0.012886635 0.0062950966
-0.070344575 0.014466753 0.0071227057
-0.072099291 0.016382154 0.0070964424
0.026959717 -0.078755334 0.0087994784
0.025338421 -0.077663608 0.0079854177
0.023550496 -0.075910784 0.0072325477
0.021764221 -0.073778287 0.0067085447
-0.065098964 0.012946586 0.0055569317
-0.066866964 0.014542857 0.0062395697
-0.068652831 0.016273256 0.0065843835
-0.070189454 0.018241104 0.007091702
-0.071621306 0.019573111 0.0071663698
0.031106431 -0.078118764 0.0089489305
0.029187705 -0.077532217 0.0086723082
0.027248487 -0.075822398 0.0077468865
0.025297299 -0.074101068 0.0068212338
0.023626896 -0.072686605 0.0067892917
-0.063362986 0.01461897 0.0053573069
-0.065160424 0.016355388 0.0057018688
-0.066367887 0.018031923 0.0061723255
-0.06825956 0.019930132 0.0068679512
-0.070026711 0.021806292 0.0072575258
0.032058015 -0.076640509 0.0085054226
0.030661853 -0.075421013 0.0077566272
0.028879065 -0.073977798 0.00708602
0.027224164 -0.072602391 0.0069110068
-0.063042313 0.018153353 0.0054278313
-0.064533725 0.01972881 0.0057382197
-0.066422589 0.02173375 0.0066490248
-0.068119332 0.023422727 0.0071485159
-0.069389135 0.024358952 0.0073219915
0.035571918 -0.076205932 0.0091306008
0.033867788 -0.075532854 0.0083066961
0.032363247 -0.073461339 0.0070683393
0.03043603 -0.072817914 0.0070147794
-0.062079035 0.019759513 0.005487218
-0.062721685 0.02168769 0.0054983553
-0.06447728 0.02340145 0.0059689889
-0.066736169 0.024907541 0.0067945933
-0.06827306 0.026592286 0.007397132
-0.069070786 0.028507346 0.0074028107
0.037489261 -0.075045012 0.008714024
0.035733551 -0.07393495 0.0079235546
0.03429015 -0.072176866 0.0071545062
-0.061651394 0.023615135 0.0055667446
-0.06322404 0.025160372 0.0056832414
-0.064986005 0.026723592 0.0063973642
-0.066712499 0.028575862 0.0069268863
-0.067922711 0.030166274 0.0074692867
0.039404109 -0.073579006 0.0089279823
0.037498415 -0.072104298 0.0075965738
0.036217052 -0.070892394 0.0072406735
-0.061598342 0.026828302 0.0056228912
-0.063327201 0.028742921 0.0057086609
-0.064948916 0.030552909 0.0065745711
-0.066557951 0.032351125 0.0074407146
0.042908013 -0.072698675 0.0094352746
0.041326623 -0.071886301 0.0087289996
0.039428778 -0.0702511 0.007358931
0.037501566 -0.069607675 0.0073053706
-0.06047453 0.029077061 0.0056985319
-0.061438356 0.030684037 0.0056934794
-0.06314031 0.032519113 0.0063347472
-0.064719722 0.034297459 0.0073127449
-0.065882057 0.035526562 0.0076282043
0.044502791 -0.071741976 0.0095047997
0.042988166 -0.070190996 0.0081937714
0.041676797 -0.068645455 0.0074612866
-0.059511505 0.032611154 0.0057905256
-0.061272595 0.034306202 0.0062606577
-0.063235909 0.035944697 0.00705666
-0.064606383 0.037440766 0.0077032535
0.046416424 -0.070306778 0.0095931171
0.044702817 -0.068810776 0.0083102211
0.043282464 -0.067039534 0.0075421431
-0.058227077 0.034538537 0.0058660721
-0.059937578 0.035881154 0.0061651394
-0.061246984 0.037252262 0.0066687437
-0.063123308 0.039089087 0.0074472288
-0.064287946 0.040950883 0.007773302
0.048335195 -0.068575077 0.009575394
0.046467427 -0.066905476 0.0083180713
0.044823941 -0.065626346 0.0076175807
-0.057584912 0.035823528 0.0059092995
-0.057906371 0.037430212 0.0059257168
-0.059476033 0.039019573 0.0060113072
-0.061300442 0.040862165 0.0068710442
-0.062818572 0.042770822 0.0074779689
-0.063331515 0.044460781 0.0078646448
-0.065564647 0.046057295 0.0078169964
0.051838767 -0.067596495 0.0098202443
0.050266486 -0.066727303 0.0093376441
0.048405126 -0.065047875 0.0080806706
0.046815038 -0.064149134 0.007709167
-0.056300763 0.039678786 0.0060174521
-0.057585709 0.0409646 0.0059962408
-0.059476633 0.042873897 0.0060764845
-0.061072882 0.044620715 0.0070533808
-0.062249988 0.046157233 0.0077294139
-0.065245934 0.047652714 0.0078546442
0.053114474 -0.066320598 0.0098844925
0.052041233 -0.064870246 0.0091226278
0.050439738 -0.063462071 0.0078420229
-0.054373972 0.041605879 0.0061144978
-0.05565891 0.042891685 0.0060932864
-0.057586312 0.044820391 0.0060614543
-0.059297062 0.046623226 0.0067019043
-0.060880218 0.048272949 0.0071533881
-0.061441295 0.049963064 0.0060195476
0.054709177 -0.06472563 0.0099648191
0.053761438 -0.063519381 0.0090957796
0.052274831 -0.061902158 0.0079297805
-0.052768312 0.04321181 0.0061953547
-0.054053232 0.044497605 0.0061741434
-0.055980641 0.046426315 0.0061423108
-0.05764256 0.048193432 0.0069505721
-0.059510503 0.050083868 0.0070868731
0.056941818 -0.063130997 0.010066498
0.05543929 -0.061779812 0.0087048495
0.054201733 -0.060617685 0.0080159474
-0.052608158 0.046103589 0.0062496546
-0.054374963 0.048032235 0.0062231976
-0.0559895 0.049762208 0.0071991961
-0.057630494 0.051606126 0.0075507639
0.058882799 -0.061277416 0.0098291887
0.057378955 -0.059896361 0.0085791554
0.056128569 -0.058690552 0.0081129642
-0.051484361 0.048352357 0.0063252654
-0.052414872 0.049936764 0.0064321375
-0.05403528 0.051659424 0.0074078008
-0.055677213 0.052882303 0.0082630981
-0.057591312 0.054031882 0.0082185362
0.060450107 -0.059622131 0.010243138
0.059284098 -0.057934403 0.0088984333
0.05805536 -0.056763463 0.0082100099
-0.050422903 0.051817294 0.0067529567
-0.052073359 0.053389836 0.007641661
-0.053444549 0.054349307 0.0083625885
0.062108535 -0.057835776 0.010328815
0.060901057 -0.056359574 0.0088123558
0.059661031 -0.055157539 0.0082908664
-0.047630735 0.052206576 0.0065193577
-0.048819095 0.053421371 0.0068337047
-0.05065009 0.055064343 0.0078963051
-0.051849876 0.055944219 0.0084428843
0.065658562 -0.056599848 0.0094677489
0.064113185 -0.056155875 0.0096737463
0.062367205 -0.054796506 0.0086376714
0.061266709 -0.053551618 0.0083717527
-0.046667341 0.053170126 0.0065678656
-0.04727817 0.055074267 0.0066908216
-0.048851833 0.056729015 0.0078893406
-0.04993628 0.057858106 0.0085392576
0.067276746 -0.055667285 0.0093708606
0.065683655 -0.05423747 0.0092583848
0.064371586 -0.052612938 0.0086343922
0.063193493 -0.051624525 0.0084687686
-0.045811448 0.057025563 0.0066617052
-0.047121827 0.058800366 0.0073151076
-0.048341691 0.060091302 0.0086304136
0.068859085 -0.054679897 0.0096072825
0.067594245 -0.052604545 0.010600789
0.066308565 -0.050852306 0.0094755618
0.064734869 -0.049568739 0.0085551143
-0.044098847 0.059595436 0.0067624738
-0.045291234 0.060801774 0.0070765517
-0.046633583 0.062371235 0.0081542563
-0.047385368 0.06423942 0.0087325275
0.067521483 -0.049164955 0.010156196
0.066725999 -0.048091467 0.0086466717
-0.042493176 0.061201356 0.0068433303
-0.043687377 0.062405884 0.0071573001
-0.045336049 0.064084128 0.0081313206
-0.046428587 0.065196335 0.0087807281
0.06972827 -0.046894204 0.010518584
0.068594709 -0.046099678 0.009243208
-0.040336844 0.06243981 0.0069363983
-0.041966539 0.063900098 0.0076849665
-0.04359163 0.065385878 0.008753757
-0.045152847 0.066472284 0.0088449772
0.07133434 -0.045627896 0.010510326
0.069937229 -0.044237003 0.0088192932
-0.038318247 0.064091474 0.0070318533
-0.0399011 0.065681152 0.00834007
-0.041006088 0.066789709 0.0089889988
0.072989039 -0.043631986 0.010504139
0.071514308 -0.041962374 0.0091328844
-0.036391407 0.066018604 0.0071288696
-0.038011026 0.067628846 0.0083250431
-0.039220188 0.069341898 0.0090919193
-0.040368803 0.071257077 0.0090858955
0.07451608 -0.041786484 0.01076512
0.07308232 -0.040326621 0.0094909621
0.071863525 -0.039096739 0.0089706741
-0.033179682 0.06665989 0.0072471267
-0.0347053 0.067537352 0.0075444924
-0.036426265 0.069242522 0.0083497483
-0.038262572 0.071072705 0.0086528761
0.076077305 -0.04016253 0.011094972
0.074662745 -0.038705755 0.0097380625
0.073340677 -0.037105169 0.0090537639
-0.031509701 0.067815945 0.0073225247
-0.033078004 0.069206923 0.0084763058
-0.034986023 0.070554681 0.0090872906
-0.036860149 0.072212949 0.0092194527
0.077746004 -0.038299397 0.01068193
0.076585151 -0.036783051 0.0098348847
0.075074799 -0.035242233 0.0091432659
-0.029242426 0.069289394 0.0077985441
-0.031171378 0.070886903 0.0090233833
0.079099029 -0.036751986 0.010253022
0.078260697 -0.034807336 0.010508037
0.076664031 -0.032984201 0.009345782
0.076037697 -0.031065512 0.0092461389
-0.02547187 0.070512503 0.007570067
-0.02739775 0.071223326 0.0083364509
-0.029190507 0.072659157 0.0093405396
0.079372369 -0.032824181 0.011329296
0.078136832 -0.031307545 0.010312909
0.07667987 -0.029780518 0.0092893364
-0.024187244 0.071368858 0.0076275216
-0.025903549 0.072803728 0.008595109
-0.027290931 0.07412371 0.0095717451
0.080222778 -0.031548083 0.011379339
0.07965181 -0.029665666 0.010947327
0.077930897 -0.027837846 0.0095864236
-0.020975528 0.072010152 0.0077457791
-0.022814097 0.072957501 0.0081450436
-0.024510736 0.074567132 0.0092275003
-0.026015198 0.075399652 0.0096359942
0.081179202 -0.028038183 0.011470681
0.080055989 -0.026183581 0.010463819
0.078606129 -0.024318924 0.0094461562
-0.019025482 0.073205762 0.0079562785
-0.020784153 0.074723594 0.0087987967
-0.022415312 0.076082021 0.0097679356
0.081995867 -0.024535339 0.011432227
0.080428153 -0.022679683 0.010202006
0.079119548 -0.021041682 0.0095187845
-0.015836863 0.073721707 0.0079465676
-0.017022058 0.074848458 0.0084819607
-0.01873971 0.076450273 0.0095635122
-0.020592686 0.076993018 0.0098442947
0.0831986 -0.022614047 0.011629986
0.082194842 -0.020874798 0.011250609
0.080184944 -0.019171977 0.00975281
0.07924746 -0.017571531 0.0095817652
-0.013909951 0.07500618 0.0080327336
-0.015297293 0.076550849 0.0090131722
-0.016509838 0.07775718 0.0099937357
0.083331451 -0.019110333 0.011526927
0.081709415 -0.017550141 0.010331616
0.080532014 -0.016286777 0.0096464623
-0.010055774 0.075218827 0.0081652189
-0.01192938 0.076193362 0.0084526287
-0.013498919 0.077774934 0.0095944097
-0.014851298 0.078905314 0.010068643
0.084367372 -0.017189557 0.011760847
0.083520636 -0.015610145 0.011092097
0.082091659 -0.013808706 0.0097405519
-0.0062016551 0.075645626 0.0083013391
-0.0081103863 0.076413073 0.0083755655
-0.010156265 0.07811784 0.0096285976
-0.011980499 0.079223245 0.010170016
0.085330166 -0.013608447 0.011353333
0.083686844 -0.011784674 0.010161683
0.082779363 -0.01018269 0.0098248813
-0.0045316736 0.07680168 0.0083767371
-0.0061230683 0.078051038 0.0089006238
-0.0080688177 0.079694554 0.010008642
0.086871348 -0.011770579 0.011602685
0.085495584 -0.0098564392 0.01092195
0.08382114 -0.0082553159 0.010059102
-0.0017053093 0.077143267 0.0084770219
-0.0030852091 0.078707606 0.0089577008
-0.0044607096 0.080161549 0.0094366781
-0.0062097227 0.081734799 0.0097050071
-0.0070218751 0.08336474 0.0094052283
0.086386196 -0.0079360008 0.011984923
0.084989339 -0.0067603169 0.010790615
0.083852939 -0.0051837666 0.010374244
0.083099499 -0.0034351726 0.00994974
0.0021489188 0.077141702 0.0086059002
0.00023490167 0.078180216 0.0086706243
-0.0013055498 0.079930268 0.0095382538
-0.0030493485 0.081772499 0.010511844
-0.0052824658 0.083369002 0.010464136
0.086385809 -0.005383071 0.012028094
0.085417546 -0.0034596561 0.011472367
0.083838522 -0.0015160397 0.010382206
0.083098941 0.00042065157 0.010014953
0.0060031838 0.076711677 0.0087275058
0.0041112169 0.078112483 0.0090214722
0.0022986415 0.079736874 0.0099890614
0.00020445646 0.080941476 0.010606566
0.086385198 -0.0015536963 0.012092866
0.085378446 0.00037112276 0.011758232
0.083837949 0.0023348406 0.010447339
0.082777098 0.0045978962 0.010074857
0.011142188 0.076281138 0.0088920807
0.0095508946 0.076982297 0.0090174899
0.0077890856 0.078192398 0.0095906109
0.0059918002 0.079684898 0.010278526
0.004287506 0.080599412 0.010737317
0.086384594 0.0022756748 0.012157638
0.085377872 0.0042049349 0.011823053
0.083676778 0.0060250936 0.010504377
0.082455494 0.0074898992 0.010113033
0.014354087 0.075637154 0.0089886095
0.012804623 0.076789044 0.0090991976
0.011223652 0.078553028 0.0099339494
0.0093802549 0.080049723 0.010773274
0.0074772984 0.080810845 0.010847567
0.086384036 0.0061050938 0.012222409
0.085038729 0.0074141356 0.01159915
0.083634645 0.0088986699 0.010801769
0.082669102 0.010702965 0.010174553
0.01618929 0.076554462 0.0090654893
0.014558022 0.078021854 0.0096611883
0.012887631 0.079901233 0.010846356
0.011305091 0.080809243 0.010975542
0.085958347 0.0086582219 0.012251345
0.085203104 0.010589029 0.01200861
0.083608247 0.012575299 0.011015994
0.08221285 0.014546038 0.010391087
0.081169344 0.016487276 0.010222248
0.020135261 0.076705866 0.009199989
0.018246321 0.078008145 0.0098260036
0.016387612 0.079630382 0.010792024
0.014494964 0.080595188 0.011078591
0.084922329 0.014415646 0.012147387
0.083514988 0.016373603 0.011633043
0.081750311 0.01822027 0.010646256
0.080751345 0.020195711 0.010471155
0.079562619 0.021950355 0.01026094
0.025916738 0.075632416 0.0093751848
0.023547726 0.076976277 0.0097475536
0.021685159 0.078300923 0.01039072
0.019900497 0.079522453 0.010907635
0.018322753 0.080593601 0.011206566
0.084362015 0.017913247 0.012354564
0.083565265 0.019783458 0.012159451
0.082217798 0.021480441 0.011787305
0.080438405 0.023495881 0.010872358
0.078824781 0.025205083 0.010491454
0.030734805 0.073381186 0.009498206
0.028972877 0.074916594 0.0097154211
0.027219141 0.076722115 0.010104325
0.025325408 0.078381844 0.010958594
0.023107685 0.079527907 0.011348572
0.083085276 0.023019608 0.012398258
0.08198823 0.025268242 0.012274532
0.080048472 0.027093185 0.011546871
0.077905916 0.028655939 0.010652555
0.076670624 0.030627085 0.010311026
0.075385578 0.032555506 0.010300693
0.037801359 0.070165128 0.0096801287
0.035809774 0.071643978 0.0096385488
0.033901922 0.072886467 0.0098816976
0.032405276 0.074634932 0.010394062
0.030860061 0.076312378 0.010886306
0.029068783 0.078101739 0.011094904
0.027254578 0.078887992 0.011476423
0.081489474 0.028764352 0.012442076
0.07962577 0.030404152 0.012073945
0.078078151 0.032048263 0.011716434
0.076558031 0.033727907 0.011138071
0.074696667 0.035718173 0.010664771
0.073114187 0.03799272 0.010483494
0.071851455 0.039947279 0.010307553
0.07056652 0.041233085 0.010286341
0.047116503 0.064698867 0.0098991627
0.044803731 0.066499218 0.0098522734
0.043261826 0.067913651 0.0098246196
0.041326586 0.069110744 0.010113752
0.039398339 0.070976757 0.010303231
0.03746878 0.072716288 0.010935239
0.035549186 0.07439848 0.011177503
0.033953674 0.076013178 0.011651799
0.080213018 0.032275185 0.012458799
0.079255916 0.033232924 0.012442969
0.077788286 0.035212036 0.012427378
0.076150797 0.037335999 0.012122658
0.074529678 0.039370198 0.011944045
0.072982498 0.041034114 0.011531277
0.071431383 0.042702902 0.011118447
0.069562227 0.044706903 0.0106451
0.067901462 0.046707012 0.010718714
0.06636259 0.04857653 0.010520154
0.064783841 0.050232351 0.01024521
0.062856406 0.052161004 0.010213377
0.061250173 0.05441092 0.010197734
0.05964401 0.056018166 0.010171212
0.057652425 0.057497028 0.010129632
0.055539604 0.059120625 0.01037233
0.05351891 0.060761016 0.01038024
0.051914614 0.06236646 0.010353692
0.050298888 0.063916743 0.010548304
0.048364729 0.06578514 0.010737638
0.046420705 0.067564622 0.011258625
0.044652846 0.069406256 0.011522575
0.042942718 0.070790961 0.01143519
0.041035719 0.071989372 0.011820554
0.039057817 0.07345815 0.011779251
0.073831752 0.042489495 0.012418213
0.072555587 0.044085622 0.012402536
0.070980452 0.04603222 0.012216043
0.06940385 0.048299454 0.012034887
0.067806825 0.049897496 0.01200847
0.066221505 0.051518608 0.011871742
0.064327016 0.053483844 0.011619275
0.062408421 0.055403732 0.011587547
0.060755644 0.057210382 0.011658138
0.05905813 0.058622666 0.011446579
0.057266671 0.060444802 0.011834463
0.05535309 0.062212925 0.011758717
0.053094566 0.063878879 0.012086616
0.051499397 0.065475099 0.012060262
0.049904265 0.06675221 0.012028537
0.047671106 0.068667851 0.011986258
0.046075944 0.070264094 0.011959905
0.067450523 0.052703854 0.012377627
0.06553632 0.054619338 0.012345996
0.063622124 0.056534827 0.012314395
0.062026955 0.058131058 0.01228807
0.0097942976 -0.074320838 0.0052983719
0.0079525365 -0.073398881 0.0052523976
0.011083354 -0.073676504 0.0053523756
0.014950641 -0.073033288 0.0054926081
0.018173458 -0.072819658 0.0056039905
0.016561914 -0.072066702 0.0055628424
0.022040786 -0.072391383 0.0057405541
0.020106981 -0.071745746 0.0056868149
0.023329802 -0.071532108 0.0057981974
0.021718182 -0.070134297 0.0057679671
0.027197205 -0.071533702 0.0059275124
0.025263324 -0.070458196 0.0058810217
0.030806823 -0.071879126 0.0060423808
0.029130729 -0.070459791 0.0060103368
0.027193738 -0.068546936 0.0058667362
0.033965074 -0.071106628 0.006161062
0.032675803 -0.070138834 0.0061343098
0.031062625 -0.068548523 0.0059960894
0.035576276 -0.069817625 0.0062367399
0.034286961 -0.06852743 0.0062154615
0.032717373 -0.066769026 0.0057638353
-0.060479023 0.026947217 0.0046616425
0.03750978 -0.068367526 0.0063259266
0.035898149 -0.066915981 0.0062965835
-0.059512414 0.02855891 0.0047212522
-0.059834931 0.030171124 0.0047377166
0.040732555 -0.067885228 0.0064418651
0.039443221 -0.066595025 0.0064205863
0.037675124 -0.064755246 0.0058922404
-0.058545996 0.031460267 0.0048026382
0.042665958 -0.065951511 0.006539247
0.041381188 -0.064703487 0.0062950356
0.039457623 -0.062912568 0.0054826839
-0.056980982 0.033946853 0.0048970343
0.044599406 -0.064447723 0.0066293506
0.042996101 -0.0631117 0.0062647806
-0.05693543 0.036940694 0.0049492093
0.04644084 -0.063097373 0.0067137685
0.044616576 -0.061538693 0.0061232233
0.042690985 -0.059678715 0.0056455182
-0.055646602 0.038874649 0.0050250487
0.05007793 -0.062407993 0.0068470668
0.048476305 -0.061479811 0.006586846
0.046571556 -0.059680331 0.0057752701
0.04463096 -0.057738412 0.0057432069
-0.053713195 0.040808361 0.0051224013
0.0520114 -0.060796689 0.0069389748
0.050428364 -0.059602935 0.0063503003
0.048511587 -0.057739999 0.0058729588
0.046663407 -0.056075457 0.0058393297
-0.05182584 0.042972386 0.0052221399
0.053622611 -0.05950769 0.0070146527
0.05204881 -0.058007583 0.0063202726
0.050128266 -0.05612307 0.0059543764
0.048834499 -0.054828506 0.00593303
-0.050490916 0.044676065 0.0052955938
-0.051458035 0.046288539 0.0052905451
0.055233769 -0.057896286 0.0070958044
0.05366363 -0.056392509 0.006401611
0.051744912 -0.05450619 0.0060357931
0.049804516 -0.053858344 0.0059818747
-0.048879769 0.046287477 0.005376745
-0.050537489 0.048130549 0.0053524808
0.057167172 -0.05596257 0.0071931863
0.055593412 -0.054437101 0.0066104392
0.053684928 -0.05256585 0.0061335117
0.053037863 -0.050624475 0.006144709
-0.047007799 0.048263632 0.0052504181
-0.04888035 0.050156493 0.0054421946
0.059100583 -0.054028857 0.0072905389
0.057513732 -0.052465811 0.0069303857
0.055624913 -0.050625555 0.0062312004
0.054331198 -0.049330954 0.006209855
-0.045103293 0.050220378 0.005236024
-0.046624608 0.051767655 0.0055448893
0.060711734 -0.052417453 0.0073716901
0.059126742 -0.050852552 0.0070115859
0.0572416 -0.049008634 0.0063126176
0.055947866 -0.047714021 0.0062912721
-0.043534718 0.051867884 0.0051495521
-0.045335788 0.053701613 0.0056206989
0.062322933 -0.050806008 0.007452813
0.0607397 -0.049239326 0.0070928456
0.058858294 -0.047553465 0.0063913101
-0.04202323 0.05356412 0.0048396634
-0.043754015 0.05533706 0.0055900756
-0.044799175 0.057248 0.0056986515
0.064256281 -0.048549887 0.0075556394
0.062706746 -0.047347985 0.0068570483
0.061121695 -0.045775067 0.0064970972
-0.040112834 0.055527758 0.0048255725
-0.041877877 0.057320323 0.0054640132
-0.043402892 0.05885949 0.0057725823
0.065867499 -0.047260892 0.0076313466
0.064491697 -0.045420341 0.006865981
0.063061722 -0.043834727 0.006594786
-0.038172845 0.057468046 0.0049232612
-0.040264871 0.058933586 0.0055452432
-0.041791689 0.060470931 0.0058537344
0.067524761 -0.045879763 0.0077101123
0.066203371 -0.044013578 0.007125672
0.064354919 -0.04189419 0.0066708592
-0.036556162 0.059084971 0.0050046779
-0.03856888 0.060469586 0.0059614768
-0.040180419 0.061437521 0.0059239683
0.069089733 -0.043393224 0.0078045386
0.067836925 -0.042140998 0.0074502653
0.065971598 -0.040277258 0.0067522768
0.064677827 -0.038659122 0.00673638
-0.034939494 0.060701907 0.0050860955
-0.036635462 0.062403295 0.0060588592
0.069733813 -0.040169306 0.0078806123
0.067911625 -0.038336925 0.0068499953
0.066248216 -0.036487598 0.0068256343
-0.031382296 0.061023969 0.0052105039
-0.032999504 0.062642202 0.0051838141
-0.034702059 0.064337008 0.0061562415
0.071022674 -0.038235307 0.0079564229
0.069488451 -0.036686808 0.0072641876
0.067587674 -0.034778126 0.0068993494
-0.029765662 0.062640861 0.0052919206
-0.031344999 0.06421759 0.0054325643
-0.033026397 0.065754957 0.0062362598
0.07231155 -0.036623757 0.008026788
0.071048692 -0.03503136 0.0077891415
0.069204353 -0.033161197 0.0069807959
0.068233974 -0.03154318 0.0069756922
-0.028148985 0.064257793 0.0053733382
-0.029691942 0.065791488 0.0056812698
-0.031157307 0.066914901 0.0063183834
0.074244909 -0.03436764 0.0081296144
0.072955571 -0.03307743 0.0081083355
0.071144342 -0.031220907 0.0070784846
0.069850616 -0.0299263 0.0070571089
-0.025977969 0.06615179 0.0054779961
-0.027706854 0.067671992 0.0060018385
-0.029546091 0.068203889 0.0063940613
0.074727803 -0.03114369 0.0082003102
0.073040515 -0.029255787 0.0075087096
0.071467213 -0.027662314 0.007149484
-0.022005066 0.066735573 0.0056207227
-0.023945535 0.06781476 0.005574089
-0.025704779 0.069363281 0.0064170635
0.075855479 -0.028887214 0.0082762158
0.074610367 -0.027618477 0.0079224771
0.073083878 -0.026045376 0.0072309016
0.072113551 -0.025074471 0.0072148694
-0.018771157 0.066087194 0.0057179015
-0.020388275 0.06748978 0.0056875395
-0.022230774 0.069298953 0.0061569009
-0.023745362 0.070565894 0.0066280072
0.076288864 -0.026270716 0.0081920261
0.074989118 -0.024575923 0.0075696623
0.073360577 -0.022902774 0.0072933314
-0.016184136 0.066517487 0.005811708
-0.017154425 0.067488439 0.0057956758
-0.018751299 0.069077037 0.0058803549
-0.020546246 0.070651405 0.0066113751
-0.022456387 0.071425118 0.0066856495
0.077788495 -0.024374157 0.0084172115
0.076852337 -0.022772597 0.0081906253
0.075023398 -0.020869903 0.0073833177
0.073513955 -0.018928176 0.0073657045
-0.013920715 0.068134129 0.0059147398
-0.015214449 0.069428742 0.0058933645
-0.016713232 0.07086689 0.0065347357
-0.01826679 0.072068237 0.0068366393
0.078110181 -0.020505283 0.0084934169
0.076867327 -0.018904982 0.0081453845
0.075022779 -0.016987689 0.0074489731
0.073599637 -0.015304821 0.0074298671
-0.011657282 0.069912575 0.0060205273
-0.013541997 0.07160154 0.0063196258
-0.015044109 0.073034152 0.006960744
0.078238584 -0.017216679 0.0085533513
0.076591581 -0.015361748 0.0078625064
0.07502231 -0.013752508 0.0075037009
-0.0087468615 0.070073135 0.0061205658
-0.010040583 0.071367741 0.0060991906
-0.01187385 0.073124349 0.0067347707
-0.013110586 0.074323051 0.0070472085
0.07972081 -0.015347264 0.008634544
0.078206405 -0.013746677 0.0079438444
0.076638944 -0.012135622 0.0075851176
-0.0064833732 0.071204476 0.0062153949
-0.0083746361 0.072891787 0.006514268
-0.010210024 0.074214377 0.0071423901
0.081009641 -0.013413315 0.0087103536
0.080092758 -0.011805049 0.0083733732
0.078578971 -0.010195283 0.0076828366
0.077608593 -0.0089008436 0.0076722833
-0.0026027674 0.071472511 0.0063497075
-0.0045283907 0.07295192 0.0064215101
-0.006342655 0.074481443 0.0072762314
-0.0082764942 0.075288288 0.0072252145
0.081699714 -0.0097748581 0.0087949894
0.0804407 -0.0082552237 0.0082782432
0.07857845 -0.0069601396 0.0077375341
0.00063105964 0.071255475 0.0064541716
-0.00098604977 0.072658055 0.0064238096
-0.0025034985 0.074703068 0.0071860058
-0.0040868879 0.075931408 0.0073762042
0.082620203 -0.0079328855 0.0088569252
0.08197546 -0.0066429223 0.0088571887
0.08017759 -0.0053442167 0.0079295607
0.078685731 -0.0034014427 0.0078013386
0.0038648159 0.071901202 0.0065732356
0.002247774 0.072656743 0.0065319464
0.0006696331 0.074180655 0.0068385215
-0.00079962838 0.076059006 0.0074882875
0.082619816 -0.0053535393 0.0089005679
0.081833273 -0.0034167268 0.00878195
0.080176987 -0.0014634823 0.0079951799
0.07841564 0.0004808724 0.0078579849
0.077283435 0.0027459338 0.007858457
0.008068827 0.071683787 0.0067101382
0.0058049224 0.072978765 0.0066563543
0.0039350516 0.074731536 0.0072905952
0.0022942955 0.076057732 0.0075917393
0.00074725924 0.076574244 0.0075487359
0.082619227 -0.0014845176 0.0089659877
0.08183267 0.00045393058 0.0088474061
0.080159068 0.0024130405 0.0081713358
0.078576796 0.0040395064 0.0079235733
0.077477083 0.005398728 0.0079098102
0.011626093 0.071466655 0.0068254247
0.009695122 0.072946064 0.0068971058
0.0078169284 0.074698836 0.007531059
0.0059039104 0.075712323 0.0077066082
0.082618646 0.0023845001 0.0090314373
0.081697524 0.0042272378 0.0090318015
0.080438524 0.0059553501 0.0085186074
0.078576274 0.0072746542 0.0079783006
0.077605896 0.0088926684 0.0079732267
0.014859934 0.071249612 0.0069298884
0.013160003 0.073169746 0.0072391112
0.011417531 0.074767143 0.0077320314
0.009771307 0.075710721 0.007835893
0.081758417 0.0075435117 0.0090899598
0.080140799 0.0088723684 0.0083912089
0.07841403 0.010833412 0.0080330959
0.077174127 0.012775067 0.0080244616
0.020357633 0.070061103 0.0070936447
0.018093789 0.071194366 0.0070371069
0.016439611 0.072841987 0.0071526021
0.014741198 0.074254245 0.0076022204
0.081543088 0.010767795 0.0091372998
0.080088988 0.01272652 0.0087882644
0.078251749 0.014715706 0.0080933394
0.076957941 0.016657367 0.0080829216
0.075987533 0.018275335 0.0080778478
0.023914859 0.069951795 0.0072107678
0.021974422 0.071031034 0.0071641346
0.020039501 0.072941795 0.0072429283
0.018144438 0.07466343 0.0079870066
0.016539311 0.075600505 0.0080603603
0.081112772 0.014636981 0.009188368
0.079895705 0.016582508 0.0090555195
0.078499652 0.018228924 0.0086614061
0.076941125 0.019881984 0.0082481056
0.07529401 0.021926753 0.008116411
0.073722944 0.024099579 0.0081006475
0.02941264 0.068439811 0.0073690154
0.027148711 0.069896564 0.0073179565
0.025531577 0.071353056 0.0072885128
0.023922592 0.072909355 0.0074834293
0.02201332 0.074661843 0.0081163608
0.020084424 0.075706519 0.0081806947
0.079715475 0.019473815 0.0092234695
0.078472018 0.021639103 0.0092185214
0.07687667 0.02371409 0.0087555293
0.074981458 0.025525898 0.0084170094
0.073075756 0.02701153 0.0081282808
0.072105341 0.028629502 0.0081231771
0.034587108 0.066173039 0.0075037065
0.03264663 0.067467943 0.0074607162
0.030754142 0.069602467 0.0075765233
0.029099505 0.07152345 0.0079666991
0.027174996 0.073339172 0.0083777774
0.025241116 0.074629664 0.0083349273
0.023951784 0.075704888 0.0083100088
0.077780895 0.025278138 0.009256986
0.076280653 0.027184218 0.0090961
0.074624076 0.028565492 0.0087066684
0.073060378 0.030232213 0.0082934564
0.071411818 0.032280922 0.0081617702
0.070164144 0.034453619 0.0081567988
0.069193847 0.035424579 0.0081407968
0.041378617 0.063258581 0.0076815234
0.039696828 0.064423926 0.0076450109
0.037497569 0.066010073 0.0075982958
0.035833951 0.067660175 0.0077135367
0.03410257 0.068985373 0.0079103578
0.032490499 0.070824087 0.0082628215
0.030720247 0.072692901 0.0084853889
0.075846478 0.029792747 0.0092686657
0.074557066 0.031727802 0.0092582759
0.072987683 0.034032494 0.0089112632
0.071415454 0.035696745 0.0085532432
0.069826685 0.037348252 0.0083056986
0.068061434 0.039307281 0.0081686033
0.066282474 0.041572638 0.0081474306
0.064665273 0.043190856 0.0081207408
0.063371502 0.044808991 0.008104844
0.061430875 0.047074433 0.0080782892
0.059490282 0.049016349 0.0080462266
0.057873081 0.050634567 0.0080195367
0.056255922 0.052252825 0.0079928469
0.054315332 0.054194737 0.0079607842
0.052374739 0.056136657 0.0079287505
0.050434224 0.057431519 0.0078857597
0.048817065 0.059049781 0.0078590699
0.046876475 0.060991693 0.007827037
0.04493596 0.062286552 0.0077840462
0.043315671 0.063877113 0.007867937
0.041368131 0.065733992 0.0081678005
0.03942693 0.067615904 0.0083571207
0.037396617 0.069189578 0.008649393
0.035554819 0.070541456 0.0086106686
0.034265529 0.071401738 0.0085821105
0.072622567 0.036887273 0.0092808744
0.071139753 0.038886879 0.0092651313
0.069461435 0.041011866 0.0091020036
0.067823894 0.043072589 0.0088914875
0.066210374 0.044687144 0.008864834
0.064630486 0.046363536 0.0085067907
0.062692091 0.04830325 0.0084748212
0.060753699 0.050242964 0.008442821
0.059152212 0.051893931 0.008250393
0.057540782 0.053522624 0.0081684692
0.055584628 0.0554155 0.0083574783
0.053639419 0.057330187 0.0084360186
0.052011598 0.058895513 0.0086304145
0.050398119 0.060510121 0.0086037908
0.048461925 0.062447634 0.0085718241
0.046191163 0.063981228 0.0088553876
0.044579539 0.065379046 0.008825127
0.042645577 0.066884436 0.0087859156
0.067142293 0.046239614 0.0092558376
0.065852962 0.047529817 0.0092345588
0.063918971 0.049465131 0.0092026256
0.061984975 0.051400431 0.0091706933
0.060695566 0.053335495 0.0091603035
0.059083864 0.054948207 0.0091337115
0.057149932 0.056561109 0.0090963049
0.055215996 0.058174003 0.0090589281
0.048232272 -0.053688791 0.0049313968
0.05017896 -0.05239113 0.0050184545
0.051638909 -0.050768625 0.0050947228
0.0534232 -0.048497058 0.0051928465
0.055045396 -0.046874601 0.0052745589
0.058939073 -0.046227004 0.0054157143
0.056992088 -0.045576941 0.0053615873
0.060236823 -0.04492905 0.0054810848
0.05893869 -0.04363003 0.0054596122
0.062183429 -0.042982135 0.0055791098
0.060885299 -0.041683119 0.005557667
0.062507458 -0.04006071 0.00563935
0.0608848 -0.038436938 0.0056125913
0.06361042 -0.038178362 0.0057080984
0.062506959 -0.036814526 0.0056942441
0.065102711 -0.036166377 0.005792053
0.064453565 -0.034867618 0.0057922993
0.06283091 -0.03324385 0.0057655112
0.06607572 -0.033245202 0.0058740112
0.064453058 -0.031621434 0.0058471933
-0.029012511 0.061907131 0.0043039918
0.067373417 -0.031622648 0.0059448648
0.066075221 -0.029999021 0.0059288759
-0.027390307 0.063529588 0.0043856744
0.069319949 -0.029351125 0.0060484027
0.068021834 -0.028052116 0.0060269306
0.06607464 -0.02610359 0.005994767
-0.024145579 0.064177483 0.0045051123
-0.025768148 0.065151997 0.0044673868
0.06996844 -0.026105205 0.0061249556
0.068021245 -0.024156677 0.0060928217
0.066074021 -0.022208204 0.006060658
-0.020251779 0.064175874 0.004635301
-0.022198923 0.065691546 0.0045958157
0.071266063 -0.024158034 0.0062013222
0.069643401 -0.022534264 0.0061745048
0.067696214 -0.020585746 0.0061423411
-0.018305041 0.065257125 0.0047187135
0.07223928 -0.022535324 0.0062613171
0.071265563 -0.020911854 0.0062561869
0.069318384 -0.018963341 0.006224053
0.067713603 -0.017345002 0.0060309879
-0.015384797 0.065796927 0.004825484
0.072346888 -0.018964576 0.0063253245
0.071264982 -0.017016428 0.0063220784
0.069642328 -0.015392657 0.0062952898
-0.013113664 0.067419082 0.0049289139
0.072562546 -0.014744652 0.0064039282
0.071588933 -0.013445748 0.0063933153
0.069995046 -0.011987213 0.0061145378
-0.0098689264 0.068066977 0.0050483518
-0.011815908 0.06871704 0.0049942546
0.074184686 -0.012797594 0.0064911246
0.073211089 -0.011823333 0.0064750575
0.071408346 -0.010248474 0.0060125664
-0.0062995362 0.06774091 0.0051621981
-0.007922194 0.069364682 0.0051354403
0.075806841 -0.011175182 0.0065728365
0.074833244 -0.010200921 0.0065567102
0.07321059 -0.0085771512 0.0065299217
0.071372047 -0.0066243033 0.0056119943
-0.00467738 0.069363326 0.0052438811
-0.0066243592 0.070013382 0.0051898132
0.076585159 -0.0083188787 0.0066471761
0.075157195 -0.0066302377 0.0066279769
0.073223867 -0.0046804743 0.0064851237
0.0008390703 0.067737952 0.0054008574
-0.00078358274 0.069361717 0.0053740698
-0.0027306406 0.070444576 0.005327323
0.076779358 -0.0050078309 0.0067096595
0.074832164 -0.0030593087 0.0066774958
0.072974898 -0.0013006431 0.0064450437
0.0040839268 0.067736641 0.0055093584
0.0024612721 0.069360405 0.0054826001
0.0011631487 0.070442967 0.0054575116
0.077536233 -0.0033850502 0.0067624543
0.076454327 -0.0014369022 0.0067592077
0.074831665 0.00018687089 0.0067324201
0.073237017 0.0018183114 0.0064843362
0.071384564 0.0037992271 0.0056775827
0.0057060919 0.069359049 0.0055910409
0.004018575 0.070788085 0.0055588209
0.0024609454 0.071308076 0.0055155307
0.077103011 0.00051056524 0.0068138866
0.076453827 0.0018092813 0.0068141324
0.075155616 0.0037575481 0.0068036569
0.073250532 0.0057215965 0.0064396271
0.071383961 0.0077078417 0.0057437089
0.011547079 0.067408919 0.0057533933
0.009599884 0.06935744 0.0057212296
0.0073931995 0.070786692 0.0056716469
0.076453179 0.0060293204 0.0068855067
0.07515499 0.0076529416 0.006869548
0.073249944 0.0096214218 0.0065055974
0.071383484 0.010965058 0.0057988004
0.016718339 0.066191137 0.0055721779
0.015116344 0.067732058 0.0058782063
0.013493686 0.069355823 0.0058514182
0.011546612 0.070438698 0.0058046714
0.076582454 0.0093403598 0.0069458415
0.074829958 0.011223874 0.0069190962
0.072924905 0.012545707 0.0065441895
0.071354978 0.014205265 0.0060750274
0.069429174 0.016177356 0.0058216271
0.019949922 0.065622911 0.0053370856
0.018361198 0.067730755 0.0059867073
0.016738543 0.069354512 0.005959949
0.015440414 0.070437081 0.0059348606
0.077101387 0.010898311 0.0069895666
0.076019481 0.012846466 0.00698632
0.074829459 0.014470054 0.0069739907
0.073206797 0.016093822 0.0069472026
0.071272783 0.018052194 0.0068044718
0.069388859 0.020054247 0.006219415
0.067800425 0.021715244 0.0058608372
0.066172265 0.023344519 0.0058339504
0.064218439 0.025299605 0.0058016861
0.062590279 0.026928877 0.0057748291
0.025426315 0.064273179 0.0053067449
0.02370134 0.065548584 0.00575314
0.021930549 0.067404635 0.0061005531
0.019890707 0.069074959 0.0060605826
0.018036382 0.070003211 0.0060143219
