# .PCD v0.7 - Point Cloud Data file format
VERSION 0.7
FIELDS x y z
SIZE 4 4 4
TYPE F F F
COUNT 1 1 1
WIDTH 1380
HEIGHT 1
VIEWPOINT 0 0 0 1 0 0 0
POINTS 1380
DATA ascii
0.35500291 -0.56574774 0.022201546
0.35778838 -0.56539059 0.022126593
0.36041421 -0.56518149 0.022054456
0.36295143 -0.56527716 0.021981319
0.36559492 -0.56545979 0.022004202
0.36816284 -0.56537598 0.02273263
0.37079632 -0.56555861 0.022755794
0.37332425 -0.56565386 0.022682926
0.37585217 -0.56574917 0.022610048
0.37838009 -0.56584448 0.022537176
0.38085175 -0.56540048 0.022472136
0.38346788 -0.56519216 0.02240026
0.38599575 -0.56528747 0.022327393
0.3885237 -0.56538272 0.022254519
0.39105159 -0.56547809 0.022181651
0.39357954 -0.56557339 0.022108773
0.39641091 -0.56575686 0.022026269
0.39895087 -0.56555176 0.022706885
0.4017044 -0.56586224 0.022875249
0.40444282 -0.56520087 0.022805143
0.40719324 -0.56522816 0.022726744
0.40971181 -0.56532311 0.022654137
0.41223037 -0.565418 0.022581531
0.41474894 -0.56551296 0.022508923
0.41715673 -0.56536347 0.022442291
0.41981268 -0.5656929 0.022863306
0.42223081 -0.56594366 0.022473436
0.42496726 -0.56569898 0.022447545
0.4272413 -0.56520295 0.023067342
0.43020928 -0.56531358 0.023072751
0.43308958 -0.5652622 0.022991573
0.43576294 -0.56544679 0.022913532
0.43827218 -0.56554139 0.022841193
0.44078141 -0.56563598 0.022768855
0.44319007 -0.56562203 0.022700634
0.44583169 -0.56498843 0.022632957
0.44819275 -0.56457472 0.022570705
0.45046377 -0.56432521 0.022509113
0.45461518 -0.56546605 0.023378545
0.45662144 -0.56537467 0.023322642
0.45912135 -0.56546891 0.02325058
0.46162128 -0.5655632 0.023178518
0.46412122 -0.56565738 0.023106456
0.46662113 -0.56575173 0.023034394
0.46831939 -0.56498092 0.022995085
0.27932617 -0.56279689 0.021605143
0.28231284 -0.56310046 0.022294978
0.28486878 -0.5631969 0.022221293
0.2875163 -0.56312597 0.022146946
0.2900129 -0.56253731 0.022082869
0.2925688 -0.56263369 0.022009185
0.29512465 -0.56273007 0.02193551
0.29770577 -0.56291097 0.022260329
0.30021808 -0.56272417 0.022406651
0.30292183 -0.5631088 0.021809805
0.305307 -0.56319875 0.021741051
0.30790412 -0.5632118 0.021567116
0.3105492 -0.56300122 0.02149445
0.31322047 -0.5626443 0.021822926
0.31603581 -0.56266618 0.02234303
0.31858236 -0.56276214 0.022269627
0.3211289 -0.5628581 0.022196213
0.32367548 -0.56295419 0.02212281
0.32622206 -0.56305015 0.022049394
0.32894731 -0.56322831 0.022242812
0.33150315 -0.56324601 0.022397423
0.33394837 -0.56291407 0.022188907
0.33655396 -0.56272966 0.022093244
0.33916557 -0.56260878 0.022414614
0.3418721 -0.56278795 0.022608556
0.34440935 -0.56288362 0.02253541
0.3472257 -0.56284851 0.02220574
0.34975302 -0.56308526 0.021881139
0.35208157 -0.56317276 0.022203084
0.35464928 -0.56310022 0.022242185
0.35719582 -0.56274945 0.022173939
0.36020601 -0.56255484 0.022090722
0.36304787 -0.56273907 0.022007905
0.36558512 -0.56283468 0.021934768
0.36816725 -0.5630151 0.022059461
0.37072393 -0.56302345 0.022787144
0.37342036 -0.56312513 0.022709413
0.37594828 -0.56322044 0.022636542
0.37856439 -0.56301206 0.022564672
0.3810361 -0.56256807 0.022499628
0.383564 -0.56266338 0.022426754
0.38609189 -0.56275868 0.022353884
0.38861978 -0.56285405 0.022281012
0.3911477 -0.56294936 0.022208137
0.3936756 -0.56304467 0.022135267
0.39620346 -0.56313992 0.022062391
0.39877382 -0.56323409 0.022321828
0.4013963 -0.5629071 0.022918141
0.40409559 -0.56267244 0.022844216
0.40698659 -0.56262088 0.022762729
0.40980753 -0.56280363 0.022680521
0.41232613 -0.56289858 0.022607923
0.41484469 -0.56299359 0.022535324
0.41736326 -0.56308854 0.022462722
0.41988182 -0.56318349 0.022390118
0.42249075 -0.56311363 0.022316849
0.42486054 -0.56269842 0.022254366
0.42755908 -0.5625515 0.022634197
0.43000343 -0.56271589 0.023108602
0.43281391 -0.56289804 0.023026707
0.43569428 -0.56284672 0.022945529
0.43836755 -0.56303126 0.022867501
0.44087684 -0.56312585 0.022795163
0.44338608 -0.56322044 0.022722824
0.4459112 -0.56289673 0.022654871
0.44843638 -0.56257296 0.022586912
0.45094559 -0.56266761 0.022514582
0.45318663 -0.56247276 0.022453209
0.45641059 -0.56293827 0.023356779
0.45921633 -0.56296813 0.023276776
0.46171632 -0.56306243 0.023204714
0.46421623 -0.5631566 0.023132652
0.46680585 -0.56308734 0.023059934
0.46916044 -0.56281179 0.022996269
0.47094604 -0.56174076 0.022957951
0.47463256 -0.5635494 0.022832364
0.27929223 -0.56041557 0.0214113
0.28241003 -0.56054378 0.022321757
0.2849659 -0.5606401 0.02224808
0.28753799 -0.56031024 0.022178868
0.29011005 -0.55998057 0.022109648
0.29266596 -0.56007695 0.022035973
0.29522184 -0.56017327 0.021962294
0.29777774 -0.56026959 0.021888617
0.30033359 -0.56036592 0.021814933
0.3028895 -0.5604623 0.021741258
0.30539706 -0.5605582 0.021794017
0.3083244 -0.56055027 0.022014711
0.3105787 -0.56018329 0.021526171
0.31329125 -0.56000453 0.021784723
0.31613263 -0.56011868 0.022369722
0.31867918 -0.5602147 0.022296319
0.32122573 -0.56031066 0.022222897
0.32377231 -0.56040674 0.022149494
0.32631886 -0.56050277 0.02207608
0.32886541 -0.56059867 0.022002677
0.3315033 -0.5605281 0.021928594
0.33399078 -0.55994153 0.021864751
0.33653733 -0.56003761 0.021791339
0.33923766 -0.56014055 0.021913569
0.34185308 -0.5601598 0.022539416
0.34456104 -0.56026179 0.022461358
0.34686935 -0.56057018 0.021741962
0.34969455 -0.56053364 0.02141205
0.35219142 -0.5605095 0.021770209
0.35459831 -0.5601868 0.022277294
0.35722411 -0.55997777 0.022205161
0.35976136 -0.56007338 0.022132019
0.36260319 -0.56025755 0.022049207
0.36551562 -0.56020558 0.021967113
0.36821878 -0.5603922 0.021888217
0.37060964 -0.56059074 0.022568382
0.37321293 -0.56050813 0.022745539
0.37613258 -0.56038797 0.022664035
0.37851363 -0.56010938 0.022599656
0.38113222 -0.56003928 0.022526115
0.38366008 -0.56013459 0.022453249
0.386188 -0.5602299 0.022380374
0.38871586 -0.56032515 0.022307506
0.39124379 -0.56042051 0.022234628
0.39377171 -0.56051582 0.022161759
0.3962996 -0.56061113 0.022088885
0.39898649 -0.56050128 0.022097243
0.40140122 -0.55988544 0.022680052
0.40402663 -0.56006265 0.022876322
0.40670985 -0.5602479 0.022798005
0.40960094 -0.56019634 0.022716524
0.41242191 -0.56037915 0.02263432
0.41494045 -0.5604741 0.022561716
0.41745901 -0.56056905 0.02248911
0.42006794 -0.56049919 0.022415843
0.42244008 -0.56022167 0.022351701
0.42504665 -0.56001407 0.022280097
0.42756522 -0.56010902 0.022207499
0.43000656 -0.56028569 0.022836462
0.43260804 -0.56030041 0.023062564
0.43541858 -0.56048256 0.022980662
0.43829885 -0.56043118 0.022899484
0.44097221 -0.56061578 0.022821456
0.4433237 -0.560453 0.022756577
0.4464089 -0.5608207 0.022664741
0.4486323 -0.56017137 0.022609115
0.45104101 -0.56015748 0.022540884
0.45355022 -0.56025195 0.022468541
0.45611602 -0.56024247 0.023021106
0.45889473 -0.56045163 0.023314983
0.46181133 -0.56056166 0.02323091
0.46440092 -0.56049228 0.023158193
0.46675557 -0.56021672 0.023094527
0.46934277 -0.56001073 0.023023456
0.47142604 -0.56008929 0.022963405
0.27938974 -0.55784959 0.021438185
0.28250718 -0.55798697 0.022348544
0.28515473 -0.5579161 0.022274196
0.28755969 -0.5574947 0.022210782
0.29020724 -0.55742383 0.022136437
0.29276311 -0.55752015 0.022062758
0.29531899 -0.55761647 0.021989081
0.29787487 -0.55771279 0.021915397
0.30043072 -0.55780917 0.021841722
0.30298665 -0.55790555 0.021768043
0.30511656 -0.55798584 0.021706646
0.30779749 -0.55779451 0.022633225
0.3104046 -0.55743134 0.022263255
0.31360987 -0.55758631 0.022041824
0.31622943 -0.55757123 0.022396406
0.31877598 -0.55766726 0.022322999
0.32132256 -0.55776328 0.022249589
0.32386908 -0.55785924 0.022176186
0.32641566 -0.55795532 0.022102764
0.32896221 -0.55805129 0.022029361
0.3314521 -0.55760401 0.021963833
0.33408755 -0.55739415 0.021891436
0.33663413 -0.55749011 0.021818025
0.33918068 -0.55758613 0.021744618
0.3418597 -0.55784422 0.021847473
0.3442508 -0.5579344 0.021778543
0.34682035 -0.5578742 0.021524386
0.3493669 -0.55797023 0.021450976
0.35227481 -0.55790162 0.021925019
0.35478336 -0.55734396 0.022304885
0.35732058 -0.55743963 0.022231748
0.3598578 -0.55753529 0.022158606
0.36239505 -0.55763084 0.022085467
0.36509821 -0.55781752 0.022006566
0.36801061 -0.55776566 0.021924471
0.37078428 -0.55794835 0.021954779
0.37287128 -0.55814511 0.022782546
0.37538671 -0.55764204 0.022716941
0.37839687 -0.55732703 0.022635115
0.3812283 -0.5575105 0.022552609
0.38375616 -0.5576058 0.022479739
0.38628408 -0.55770111 0.022406867
0.38881198 -0.55779642 0.022333993
0.3913399 -0.55789173 0.022261122
0.39386779 -0.55798697 0.022188246
0.39648634 -0.55791694 0.022114715
0.39886495 -0.55750012 0.022051999
0.40157634 -0.55751896 0.022074854
0.40401813 -0.55745858 0.022633804
0.40664095 -0.55763817 0.022830121
0.40915954 -0.55773306 0.022757517
0.41209781 -0.55784386 0.02267281
0.4150362 -0.55795467 0.022588104
0.41764507 -0.55788481 0.022514844
0.42001733 -0.55760723 0.022450702
0.42262381 -0.55739969 0.0223791
0.42514241 -0.55749464 0.022306498
0.42766097 -0.55758965 0.022233894
0.43018132 -0.55777258 0.022560403
0.43270341 -0.55779034 0.023088872
0.43521273 -0.55788487 0.023016535
0.43802318 -0.55806696 0.022934629
0.440956 -0.55765021 0.022856174
0.44319043 -0.55734771 0.022796229
0.4492465 -0.55778557 0.02261924
0.45113638 -0.55764735 0.022567183
0.45364559 -0.55774188 0.022494853
0.45614544 -0.55783659 0.022533946
0.45850176 -0.55784792 0.023256177
0.46148971 -0.55804509 0.023269117
0.46422172 -0.557522 0.023197599
0.4669379 -0.55741572 0.023121715
0.46943781 -0.55750996 0.023049653
0.47193772 -0.55760419 0.022977591
0.47363603 -0.55683345 0.022938281
0.49344537 -0.55675608 0.02337721
0.27777711 -0.55521888 0.021514365
0.27948725 -0.55528331 0.021465067
0.28204289 -0.55528241 0.022250056
0.28439993 -0.55532718 0.02232554
0.28719175 -0.55473912 0.02194524
0.2899316 -0.55483723 0.021712396
0.29272658 -0.55486935 0.021994378
0.29541615 -0.55505967 0.02201586
0.29797205 -0.55515599 0.021942185
0.30052793 -0.55525237 0.021868506
0.30308384 -0.55534875 0.02179483
0.30553725 -0.55533457 0.021725331
0.30802748 -0.55483729 0.022160625
0.31037447 -0.55488706 0.022371326
0.31309736 -0.55498707 0.022515193
0.31590179 -0.55500776 0.022435332
0.31870624 -0.5550285 0.022355473
0.32141933 -0.55521584 0.022276273
0.32396588 -0.5553118 0.022202866
0.32651246 -0.55540776 0.022129456
0.32914791 -0.55519795 0.022057062
0.33163786 -0.55475068 0.02199153
0.33418441 -0.5548467 0.021918127
0.33673093 -0.55494273 0.021844707
0.33927751 -0.55503869 0.021771302
0.34182405 -0.55513471 0.021697892
0.34437063 -0.55523074 0.021624485
0.34691721 -0.55532676 0.021551073
0.34976965 -0.55520803 0.022043142
0.35225159 -0.55487621 0.022405287
0.35487983 -0.55480587 0.02233148
0.35741705 -0.55490154 0.022258334
0.35995424 -0.55499715 0.022185197
0.36249149 -0.55509287 0.022112055
0.36502874 -0.55518848 0.022038916
0.36756596 -0.55528414 0.021965772
0.37040779 -0.55546832 0.021882959
0.37310308 -0.55516583 0.022310158
0.37542593 -0.55475938 0.022749135
0.37795386 -0.55485463 0.022676263
0.3809031 -0.55496591 0.022591248
0.38385233 -0.55507702 0.022506228
0.38638023 -0.55517238 0.022433357
0.38890809 -0.55526757 0.022360483
0.39143598 -0.55536294 0.022287611
0.39405459 -0.55529284 0.022214079
0.39643556 -0.55501425 0.022149695
0.39905176 -0.55480593 0.022077829
0.40157965 -0.55490124 0.022004955
0.40419936 -0.55508643 0.022028487
0.40667474 -0.5551725 0.02227403
0.40915623 -0.55512661 0.022514867
0.41177383 -0.55530858 0.022711307
0.41459477 -0.55549145 0.02262911
0.4174619 -0.55496234 0.022553816
0.42020097 -0.55478531 0.022478096
0.42271954 -0.55488026 0.022405488
0.42523816 -0.55497521 0.022332884
0.4277567 -0.55507016 0.022260278
0.43028125 -0.55517572 0.022687614
0.43279883 -0.55528015 0.023115158
0.43530807 -0.5553748 0.023042828
0.43790731 -0.55530518 0.022969838
0.44042575 -0.55495828 0.022902347
0.44340277 -0.55476588 0.022820048
0.44582686 -0.55409551 0.022758976
0.45123175 -0.55513722 0.022593468
0.45374101 -0.55523181 0.022521138
0.45625025 -0.5553264 0.022448808
0.45880148 -0.55542845 0.022739006
0.46118394 -0.55511183 0.023311689
0.46411636 -0.55480504 0.023231983
0.46703291 -0.55491495 0.023147911
0.46953282 -0.55500919 0.023075849
0.47203276 -0.55510342 0.023003787
0.47442269 -0.55495507 0.022937652
0.47623098 -0.55442691 0.022892416
0.49349272 -0.5555104 0.023390263
0.49490264 -0.55487043 0.02335763
0.49769104 -0.55442113 0.023283631
0.49976653 -0.55449939 0.023223802
0.27787462 -0.55265278 0.021541247
0.27958477 -0.55271727 0.021491949
0.28200516 -0.55281293 0.021547183
0.28453195 -0.55239516 0.022264721
0.28701559 -0.55221933 0.021594563
0.28987813 -0.55224872 0.021205118
0.29248777 -0.55249286 0.021699896
0.29520646 -0.55241376 0.022052391
0.29806918 -0.55259931 0.02196897
0.30062512 -0.55269563 0.021895286
0.30318099 -0.55279201 0.021821609
0.30582851 -0.55272114 0.021747265
0.30832511 -0.55213249 0.021683177
0.31057543 -0.55234432 0.021759775
0.31302762 -0.55234838 0.022547662
0.31557417 -0.55244434 0.02247425
0.31828728 -0.55263168 0.022395059
0.32121041 -0.55257958 0.022312671
0.32406271 -0.55276436 0.022229556
0.32660925 -0.55286044 0.02215614
0.32909673 -0.55227387 0.022092298
0.33173466 -0.55220324 0.022018215
0.33428118 -0.55229926 0.021944812
0.33682773 -0.55239522 0.021871397
0.3393743 -0.55249131 0.021797994
0.34192088 -0.55258727 0.021724574
0.34446743 -0.55268329 0.021651169
0.34701401 -0.55277926 0.021577759
0.34988573 -0.55249941 0.022499919
0.35243905 -0.55217201 0.022431208
0.35497141 -0.55234069 0.022057226
0.35737249 -0.5523383 0.021788994
0.36005074 -0.55245906 0.022211783
0.36258793 -0.55255473 0.022138646
0.36512518 -0.55265033 0.0220655
0.36766243 -0.552746 0.021992365
0.37019959 -0.55284172 0.021919221
0.37268046 -0.55239606 0.021853937
0.37558493 -0.55244648 0.021985274
0.37840667 -0.55244166 0.021921707
0.38079339 -0.5524168 0.022290336
0.38340923 -0.55260473 0.022547375
0.38631096 -0.55255288 0.02246559
0.38900417 -0.5527389 0.022386977
0.39153209 -0.55283421 0.022314101
0.39400378 -0.55239016 0.022249062
0.39661992 -0.55218184 0.02217719
0.39914784 -0.55227715 0.022104319
0.40167573 -0.55237246 0.022031447
0.40420362 -0.55246776 0.021958573
0.40673152 -0.55256301 0.021885702
0.40928894 -0.5526703 0.022145348
0.41186959 -0.55278915 0.022737702
0.4144761 -0.55258161 0.022666095
0.41700622 -0.55237114 0.022596689
0.41999435 -0.55217797 0.022514082
0.42281526 -0.55236077 0.02243188
0.42533386 -0.55245572 0.022359282
0.42785248 -0.55255067 0.022286683
0.43048736 -0.55267602 0.023085821
0.4328942 -0.55277008 0.023141451
0.43549347 -0.55270046 0.023068454
0.43785688 -0.55242395 0.02300455
0.44045371 -0.55221719 0.022933215
0.442963 -0.55231172 0.022860885
0.44589046 -0.55242211 0.022776499
0.44881788 -0.55253243 0.022692114
0.45132712 -0.55262715 0.022619771
0.45383638 -0.55272168 0.022547431
0.45634562 -0.55281633 0.022475094
0.45887077 -0.55249256 0.022407144
0.46129486 -0.55219424 0.023342252
0.46379471 -0.55228847 0.02327019
0.46671131 -0.5523985 0.023186117
0.46962786 -0.55250841 0.023102045
0.4721278 -0.55260265 0.023029983
0.4746277 -0.55269694 0.022957921
0.47702742 -0.552683 0.022889953
0.47967508 -0.55163503 0.022826888
0.49536341 -0.55277395 0.023368753
0.49775416 -0.55276024 0.023301035
0.50033408 -0.5526911 0.023228589
0.50227511 -0.55193251 0.023182249
0.27968228 -0.55015111 0.02151883
0.28224748 -0.55024785 0.021444883
0.28475568 -0.5497973 0.021378877
0.28741044 -0.54958588 0.021305948
0.2897267 -0.54979557 0.021237761
0.29240584 -0.54967505 0.021996802
0.29475853 -0.549914 0.022093991
0.29748157 -0.55010206 0.022014508
0.30029628 -0.5501228 0.021934351
0.30311096 -0.5501436 0.021854198
0.30585021 -0.54990542 0.02177918
0.30842227 -0.54957563 0.021709966
0.31055218 -0.54965597 0.021648565
0.31312442 -0.54980093 0.022574348
0.315671 -0.54989696 0.022500942
0.31821755 -0.54999286 0.022427533
0.32076412 -0.55008894 0.022354117
0.32347718 -0.55027622 0.022274926
0.32643119 -0.55009001 0.02219321
0.32911837 -0.54946846 0.0221241
0.33183146 -0.5496558 0.022044906
0.334378 -0.54975176 0.021971501
0.33692455 -0.54984784 0.021898082
0.3394711 -0.5499438 0.021824678
0.34201765 -0.55003983 0.021751264
0.34456423 -0.55013585 0.021677861
0.34711078 -0.55023187 0.021604441
0.34990722 -0.54970431 0.022531599
0.35253546 -0.54963398 0.022457799
0.35497707 -0.54971004 0.02205411
0.35732928 -0.54976678 0.021319704
0.35998598 -0.54995698 0.021658937
0.36257654 -0.5499227 0.022069331
0.36522162 -0.55011219 0.022092095
0.36775887 -0.55020785 0.022018949
0.37038469 -0.54999882 0.021946819
0.37286547 -0.54955316 0.02188153
0.37540266 -0.54964882 0.021808395
0.37810588 -0.5498355 0.021729488
0.38058686 -0.54973835 0.021660168
0.38320184 -0.54998773 0.022583505
0.3858951 -0.55017364 0.022504887
0.38879678 -0.5501219 0.022423102
0.39171645 -0.55000174 0.022341602
0.39418814 -0.54955775 0.022276551
0.396716 -0.54965299 0.022203684
0.39924392 -0.54974836 0.02213081
0.40177184 -0.54984367 0.022057941
0.40429974 -0.54993892 0.021985063
0.40682763 -0.55003428 0.021912195
0.4095397 -0.55016679 0.022548297
0.41205564 -0.55010492 0.022763427
0.41442546 -0.54968965 0.022700945
0.41703439 -0.54961979 0.022627681
0.41955295 -0.54971474 0.022555083
0.42249128 -0.54982549 0.022470383
0.42542964 -0.54993629 0.022385677
0.42794821 -0.5500313 0.022313068
0.43046954 -0.55021173 0.022656256
0.43298748 -0.55023974 0.022667818
0.43545836 -0.54990721 0.022458587
0.43797016 -0.54952168 0.022762029
0.44054914 -0.549707 0.022959514
0.44305837 -0.54980159 0.02288717
0.44556767 -0.54989624 0.02281484
0.44849506 -0.55000657 0.022730455
0.45142254 -0.55011696 0.02264607
0.45393181 -0.55021161 0.022573739
0.45645693 -0.54988784 0.022505784
0.45873857 -0.54967457 0.02244347
0.46149004 -0.54980159 0.023364354
0.46388981 -0.5497877 0.023296386
0.46638972 -0.54988194 0.023224324
0.46930632 -0.54999191 0.023140252
0.47222286 -0.55010188 0.023056179
0.47472274 -0.55019611 0.022984117
0.47730997 -0.54999006 0.022913046
0.47966456 -0.54971462 0.022849381
0.48198697 -0.54935694 0.022787556
0.49585009 -0.55035973 0.023382837
0.49793577 -0.54996961 0.023328131
0.50028402 -0.54983127 0.023263061
0.50235713 -0.54977334 0.023204874
0.28020737 -0.54760116 0.021533385
0.28243703 -0.5475139 0.021471092
0.28494275 -0.54692304 0.021406779
0.28750795 -0.54701984 0.02133283
0.28997034 -0.54700559 0.021263085
0.29237047 -0.54716551 0.021993458
0.29485568 -0.54735726 0.022120778
0.29741156 -0.54745364 0.022047093
0.29996744 -0.54754996 0.021973418
0.30269045 -0.54773796 0.021893937
0.30525768 -0.54712874 0.021828087
0.30809349 -0.54700285 0.021749029
0.31079853 -0.54691511 0.021673245
0.31332332 -0.54736358 0.022596862
0.31576782 -0.54734945 0.022527626
0.31831437 -0.54744548 0.022454215
0.32086092 -0.5475415 0.022380808
0.32340747 -0.54763746 0.0223074
0.3258974 -0.54719019 0.022241872
0.32869941 -0.5470717 0.022163689
0.33150384 -0.54709232 0.022083825
0.33430827 -0.54711306 0.022003967
0.33702138 -0.54730034 0.021924773
0.33956793 -0.54739636 0.021851368
0.34211451 -0.54749238 0.021777948
0.34466109 -0.54758841 0.021704545
0.34729895 -0.54751772 0.021630462
0.35009468 -0.54700017 0.022557527
0.35263193 -0.54709584 0.022484383
0.35502762 -0.54717934 0.022290349
0.35742611 -0.54721922 0.021346387
0.35997269 -0.54731524 0.021272978
0.36263779 -0.5475803 0.021376155
0.36518246 -0.54755723 0.021922633
0.36794633 -0.54750377 0.022044877
0.3703337 -0.5470854 0.021981925
0.37296191 -0.54701507 0.021908121
0.37549916 -0.54711074 0.021834979
0.37803638 -0.54720634 0.021761842
0.38049203 -0.54730606 0.021816023
0.38329798 -0.54745889 0.022609992
0.38582584 -0.54755425 0.022537122
0.38835371 -0.5476495 0.022464246
0.39109582 -0.54723346 0.022391208
0.39411891 -0.5469383 0.022308785
0.39681211 -0.54712421 0.022230174
0.39934003 -0.54721957 0.022157302
0.40186796 -0.54731488 0.022084428
0.40439585 -0.54741025 0.022011558
0.40684992 -0.54740489 0.022370717
0.40963283 -0.54749048 0.022862429
0.41200507 -0.54721302 0.022798287
0.41461158 -0.54700536 0.022726685
0.41713011 -0.54710031 0.022654083
0.41964871 -0.5471952 0.022581479
0.4221673 -0.54729027 0.022508869
0.4251056 -0.54740101 0.022424163
0.42804393 -0.54751182 0.022339463
0.43056253 -0.54760671 0.022266865
0.43316907 -0.54739916 0.022195261
0.43563157 -0.54695684 0.02213046
0.43822914 -0.5471437 0.022154594
0.44064456 -0.54719692 0.022985816
0.4431538 -0.54729152 0.022913486
0.44566303 -0.54738605 0.022841142
0.4481723 -0.5474807 0.022768803
0.45109972 -0.54759103 0.02268441
0.45411479 -0.5474 0.02260102
0.45656824 -0.54695928 0.022536457
0.45844221 -0.54723942 0.022480018
0.46197852 -0.54737824 0.023378486
0.46398482 -0.54728693 0.023322582
0.46648476 -0.54738116 0.02325052
0.4689846 -0.5474754 0.023178458
0.47190127 -0.54758537 0.023094386
0.47490504 -0.54739499 0.023011304
0.4772597 -0.5471195 0.022947639
0.47984934 -0.54705018 0.022874922
0.48234925 -0.54714441 0.022802852
0.48474893 -0.54713058 0.022734862
0.48736489 -0.54691619 0.022663072
0.48931456 -0.5468505 0.022608479
0.49625158 -0.54854512 0.023392409
0.49788576 -0.54710972 0.023362603
0.50022399 -0.54715031 0.023295751
0.28245875 -0.54468799 0.021503126
0.28504026 -0.544357 0.021433661
0.28760549 -0.54445368 0.021359712
0.2901707 -0.54455042 0.021285765
0.2927359 -0.5446471 0.021211816
0.29503512 -0.54489243 0.021894045
0.29750878 -0.54489684 0.022073882
0.30006462 -0.54499316 0.022000203
0.30271217 -0.54492229 0.021925855
0.3052088 -0.5443337 0.021861771
0.30776465 -0.54443002 0.021788098
0.31048769 -0.54461801 0.021708608
0.31327167 -0.54449242 0.022298012
0.31586462 -0.54480195 0.022554317
0.31841114 -0.54489797 0.022480898
0.32095772 -0.544994 0.022407493
0.32359561 -0.54492337 0.022333413
0.32608306 -0.54433692 0.022269567
0.32862964 -0.54443288 0.022196161
0.33117622 -0.5445289 0.02212275
0.33388931 -0.54471624 0.022043556
0.33681247 -0.54466414 0.021961164
0.33966473 -0.54484886 0.021878051
0.34221131 -0.54494488 0.02180464
0.34475785 -0.54504097 0.021731235
0.34724781 -0.54459369 0.021665704
0.34966806 -0.5443114 0.022457791
0.35218728 -0.54461437 0.022525687
0.35509971 -0.54456246 0.022443593
0.35766441 -0.5446859 0.021493953
0.36006948 -0.54476786 0.02129967
0.362616 -0.54486382 0.021226253
0.36525923 -0.54507482 0.021548957
0.36789531 -0.54459035 0.022079986
0.37052116 -0.54438126 0.022007849
0.37305838 -0.54447693 0.021934709
0.3755956 -0.54457259 0.02186157
0.37813282 -0.54466832 0.021788428
0.38081571 -0.54470372 0.022011986
0.38339406 -0.54493016 0.022636482
0.38581577 -0.5450542 0.021982694
0.38846585 -0.54469937 0.022495158
0.39132789 -0.54422724 0.02216924
0.39378455 -0.54460639 0.021981426
0.39660472 -0.54450727 0.022266299
0.39943612 -0.54469079 0.022183793
0.40196404 -0.5447861 0.022110919
0.40449196 -0.5448814 0.022038046
0.40709549 -0.54485303 0.0226648
0.40958223 -0.54459858 0.022897284
0.41218874 -0.54439098 0.022825681
0.4147073 -0.54448593 0.022753077
0.41722587 -0.54458088 0.022680469
0.41974449 -0.54467583 0.022607863
0.42226303 -0.54477078 0.022535264
0.42478159 -0.54486573 0.022462666
0.42760256 -0.54504848 0.022380464
0.43060163 -0.54473472 0.02229894
0.4331184 -0.54450721 0.022230109
0.43572736 -0.54443735 0.022156844
0.43824589 -0.54453236 0.022084236
0.4407523 -0.54459172 0.022595992
0.44324917 -0.54478139 0.022939771
0.4457584 -0.54487598 0.022867441
0.44826767 -0.54497063 0.022795111
0.45086688 -0.54490101 0.022722116
0.45349872 -0.54465222 0.022650264
0.45649949 -0.54435927 0.022568449
0.45907226 -0.54443526 0.022494521
0.46164638 -0.54449183 0.022820979
0.46407986 -0.54478616 0.023348778
0.46657971 -0.54488039 0.023276716
0.4690797 -0.54497463 0.023204654
0.4716669 -0.54476851 0.023133583
0.47429129 -0.54465741 0.023060361
0.47728094 -0.54436553 0.022978857
0.47994435 -0.54454941 0.022901118
0.48244423 -0.54464364 0.022829056
0.48494413 -0.54473788 0.022756968
0.48744407 -0.54483217 0.022684902
0.48984379 -0.54481828 0.022616934
0.49848485 -0.54447097 0.023376087
0.49992982 -0.54473335 0.02333203
0.28196099 -0.54201376 0.021548161
0.28471026 -0.54177475 0.021472868
0.28753522 -0.54179561 0.02139242
0.29026821 -0.54198432 0.021312647
0.29283342 -0.542081 0.021238701
0.29517603 -0.54219145 0.021456758
0.29760587 -0.5423401 0.022100667
0.30016175 -0.54243636 0.02202699
0.30273384 -0.54210669 0.02195777
0.30530593 -0.54177684 0.021888562
0.3078618 -0.54187322 0.021814875
0.31041771 -0.5419696 0.021741202
0.31309938 -0.54216325 0.021762872
0.31574544 -0.54220766 0.022087432
0.31835958 -0.54217601 0.022331912
0.32105452 -0.54244655 0.022434184
0.32354447 -0.54199928 0.022368653
0.32617989 -0.54178947 0.022296259
0.32872644 -0.5418855 0.022222843
0.33127302 -0.54198146 0.022149434
0.3338196 -0.54207748 0.022076027
0.33636612 -0.54217345 0.022002617
0.3390792 -0.54236084 0.021923427
0.34200236 -0.54230869 0.021841031
0.344946 -0.54232687 0.021757249
0.34743348 -0.54174036 0.021693399
0.34991992 -0.54184222 0.021732794
0.35209152 -0.54189146 0.022359777
0.3547979 -0.54208684 0.022389818
0.35733721 -0.54213268 0.021657795
0.36016628 -0.54222035 0.021326354
0.3627128 -0.54231644 0.021252943
0.36536592 -0.54250872 0.021275446
0.36808035 -0.54174751 0.022107581
0.37061763 -0.54184318 0.022034444
0.37315479 -0.54193884 0.021961298
0.37569204 -0.54203439 0.021888157
0.37822929 -0.54213017 0.021815019
0.38076651 -0.54222578 0.021741876
0.38336053 -0.54248828 0.021998679
0.38584098 -0.54241711 0.021595594
0.38855675 -0.54186052 0.021979667
0.39102766 -0.54180306 0.021955658
0.39341956 -0.54176903 0.021638028
0.39616168 -0.54203486 0.022307446
0.3989931 -0.54221845 0.022224935
0.40189475 -0.54216665 0.022143152
0.40458804 -0.54235268 0.022064537
0.40720662 -0.5425424 0.022088051
0.40964496 -0.54181504 0.022472894
0.41228449 -0.54187155 0.022852067
0.41480303 -0.5419665 0.022779465
0.41732162 -0.54206151 0.022706866
0.41984019 -0.54215646 0.022634268
0.42235875 -0.54225135 0.02256166
0.42487732 -0.5423463 0.022489054
0.42739594 -0.54244119 0.02241645
0.43000305 -0.54204893 0.022346964
0.43300211 -0.54173511 0.022265436
0.43582308 -0.54191792 0.022183239
0.43834165 -0.54201287 0.022110641
0.44086018 -0.54210782 0.022038035
0.44336113 -0.54223651 0.022465767
0.44585383 -0.54236579 0.022893727
0.4484531 -0.54229623 0.022820737
0.45081651 -0.54201972 0.022756834
0.45341334 -0.54181296 0.022685498
0.45622385 -0.54199505 0.022603603
0.45910415 -0.54194373 0.02252242
0.46177748 -0.54212832 0.02244438
0.46411332 -0.54226935 0.02317681
0.4666748 -0.54237962 0.023302913
0.469262 -0.54217362 0.023231842
0.4716166 -0.54189807 0.023168176
0.47420624 -0.54182869 0.023095459
0.47700632 -0.54201019 0.023013867
0.47987586 -0.54195893 0.022932991
0.4825393 -0.54214287 0.022855252
0.48503923 -0.54223716 0.022783183
0.48753908 -0.54233134 0.022711098
0.49003908 -0.54242563 0.022639036
0.49899462 -0.54199511 0.023390204
0.49982485 -0.54202646 0.023366272
0.53482509 -0.54092073 0.023385823
0.5360657 -0.54096746 0.02335006
0.28172296 -0.53926367 0.021586692
0.28438023 -0.5391925 0.021512074
0.28694543 -0.53928924 0.021438126
0.28967839 -0.53947794 0.021358352
0.29250342 -0.53949881 0.021277908
0.29532835 -0.53951967 0.021197459
0.29794186 -0.53991419 0.022119161
0.30035061 -0.53971243 0.022053098
0.30275553 -0.53929102 0.021989694
0.30540311 -0.53922009 0.021915339
0.30795896 -0.53931642 0.021841666
0.31051487 -0.5394128 0.021767983
0.31307074 -0.53950912 0.02169431
0.31562665 -0.53960556 0.021620624
0.31832224 -0.53973556 0.021876087
0.32124022 -0.53959328 0.02246188
0.32373017 -0.53914601 0.022396347
0.32627672 -0.53924203 0.022322943
0.32882327 -0.53933799 0.022249529
0.33136985 -0.53943402 0.022176126
0.3339164 -0.53952998 0.02210271
0.33646294 -0.539626 0.022029301
0.33900952 -0.53972203 0.021955894
0.34155604 -0.53981805 0.021882484
0.34419152 -0.53960818 0.021810086
0.34698719 -0.53924972 0.021734852
0.34991032 -0.53919762 0.021652466
0.3526234 -0.53938496 0.021573266
0.35502264 -0.53970855 0.02175153
0.35771653 -0.53957689 0.021426449
0.36026308 -0.53967297 0.021353045
0.36280963 -0.53976893 0.021279624
0.36535621 -0.53986496 0.021206221
0.36803639 -0.53910238 0.021866541
0.37071404 -0.53930503 0.022061029
0.37325126 -0.5394007 0.021987889
0.37578851 -0.53949636 0.021914747
0.37832576 -0.53959203 0.021841606
0.38086298 -0.53968769 0.021768464
0.38340014 -0.53978336 0.021695325
0.38602844 -0.53971303 0.02162152
0.38830817 -0.5394035 0.021560371
0.39101022 -0.53939325 0.022055464
0.39380687 -0.53938979 0.022119025
0.39625779 -0.5395062 0.02233394
0.39878571 -0.5396015 0.022261063
0.40161714 -0.53978497 0.022178559
0.40451878 -0.53973323 0.022096772
0.40722802 -0.53949761 0.02202257
0.40986171 -0.53926718 0.022050515
0.41238019 -0.53935212 0.022878468
0.41489878 -0.53944707 0.022805866
0.41741738 -0.53954202 0.022733262
0.41993591 -0.53963691 0.022660652
0.42245448 -0.53973186 0.022588048
0.4249731 -0.53982681 0.022515446
0.42750761 -0.53950191 0.022447243
0.43004212 -0.53917694 0.022379041
0.43256071 -0.53927189 0.022306442
0.43549907 -0.5393827 0.022221737
0.4384374 -0.53949344 0.022137029
0.44095594 -0.53958839 0.022064425
0.4434745 -0.53968334 0.021991819
0.4459632 -0.5397585 0.022647904
0.44840261 -0.539415 0.022855463
0.45099947 -0.53920817 0.022784121
0.45350873 -0.53930283 0.022711784
0.45601797 -0.53939748 0.022639453
0.45869136 -0.53958207 0.022561425
0.46157166 -0.53953069 0.022480248
0.46433315 -0.53982478 0.022798633
0.46685714 -0.5395785 0.0233301
0.46921176 -0.539303 0.023266435
0.47180134 -0.53923368 0.023193717
0.47430128 -0.53932792 0.023121655
0.47680119 -0.53942221 0.023049593
0.4797177 -0.53953212 0.022965521
0.48263434 -0.5396421 0.022881448
0.48513424 -0.53973627 0.022809386
0.48763412 -0.53983063 0.022737302
0.49014989 -0.53950799 0.022669598
0.50041133 -0.53971988 0.02337628
0.53530145 -0.53928155 0.023391247
0.53685617 -0.53923655 0.023347627
0.53864127 -0.53857887 0.023304552
0.28191254 -0.53652972 0.021612903
0.28447774 -0.5366264 0.021538956
0.28704298 -0.5367232 0.021465011
0.28960815 -0.53681982 0.021391064
0.29217339 -0.53691649 0.021317115
0.29473859 -0.53701329 0.021243164
0.29784426 -0.53721631 0.022028044
0.3003723 -0.53689677 0.022085022
0.30294436 -0.53656697 0.022015803
0.30550024 -0.53666329 0.021942129
0.30805615 -0.53675967 0.021868447
0.31061199 -0.536856 0.021794774
0.31316793 -0.53695244 0.021721087
0.31572378 -0.5370487 0.021647414
0.31844866 -0.53717005 0.021768743
0.32118911 -0.53666914 0.022497118
0.32382697 -0.53659856 0.022423038
0.32637349 -0.53669453 0.022349635
0.32892007 -0.53679055 0.022276213
0.33146662 -0.53688657 0.02220281
0.33401322 -0.5369826 0.0221294
0.33655974 -0.53707856 0.022055993
0.33910632 -0.53717452 0.021982577
0.34174421 -0.53710395 0.021908501
0.34414038 -0.5366841 0.021845322
0.34677827 -0.53661346 0.021771243
0.34949139 -0.53680074 0.021692052
0.35229579 -0.53682148 0.021612192
0.35510024 -0.53684217 0.021532333
0.35781333 -0.5370295 0.021453133
0.36035991 -0.53712553 0.02137973
0.36290646 -0.53722149 0.021306315
0.36554191 -0.53701162 0.021233922
0.36813733 -0.53666282 0.021264303
0.37071624 -0.53665125 0.021674775
0.37330008 -0.53662378 0.021768473
0.37588495 -0.53695828 0.021941338
0.37842214 -0.53705388 0.021868192
0.38095939 -0.53714961 0.021795055
0.38349664 -0.53724521 0.021721913
0.38597745 -0.53679961 0.021656631
0.38881353 -0.53677404 0.022148093
0.39129809 -0.53678679 0.022506174
0.39382595 -0.5368821 0.022433301
0.39635387 -0.53697741 0.022360427
0.39888179 -0.53707272 0.022287557
0.40140969 -0.53716791 0.022214681
0.4041703 -0.53719527 0.022135992
0.40680102 -0.53660387 0.022068135
0.40970278 -0.53655207 0.02198635
0.41236973 -0.53679508 0.022544496
0.41499454 -0.53692758 0.022832254
0.4175131 -0.53702253 0.022759646
0.42003167 -0.53711754 0.022687048
0.42255026 -0.53721249 0.022614449
0.4251568 -0.53700483 0.022542845
0.42761928 -0.5365625 0.022478044
0.43013787 -0.53665745 0.022405436
0.43265647 -0.53675246 0.02233283
0.43517503 -0.53684735 0.022260226
0.43799603 -0.53703016 0.022178022
0.44088697 -0.5369786 0.022096541
0.44357029 -0.53716391 0.022018224
0.44607288 -0.53690112 0.022650521
0.44858563 -0.53660351 0.02288276
0.45109484 -0.5366981 0.022810429
0.4536041 -0.53679276 0.022738092
0.45611334 -0.53688735 0.022665752
0.4586226 -0.53698188 0.022593409
0.46129593 -0.53716648 0.022515381
0.46416578 -0.53712225 0.022525372
0.46680683 -0.536708 0.023364699
0.46950218 -0.53647417 0.02310897
0.47185171 -0.53656274 0.023041243
0.47439629 -0.53682715 0.023147851
0.47689623 -0.53692144 0.023075789
0.47939613 -0.53701562 0.023003727
0.48231271 -0.53712559 0.022919655
0.48522928 -0.53723556 0.022835582
0.48774505 -0.53691298 0.022767881
0.49015269 -0.53669071 0.022702072
0.50133622 -0.5372597 0.023378456
0.50306875 -0.53688145 0.023333639
0.51128495 -0.53580511 0.023112789
0.53714943 -0.53696907 0.023365509
0.53868842 -0.53733778 0.023317561
0.28201005 -0.53396356 0.021639787
0.28457525 -0.5340603 0.021565838
0.28714049 -0.53415704 0.021491893
0.28970566 -0.53425378 0.021417946
0.29227093 -0.5343504 0.021343997
0.294792 -0.53445923 0.021396216
0.29789737 -0.5346697 0.022181021
0.300394 -0.53408104 0.022116939
0.30304155 -0.53401017 0.022042593
0.30559742 -0.53410649 0.02196891
0.30815327 -0.53420287 0.021895237
0.31070915 -0.53429931 0.021821551
0.31326509 -0.53439558 0.021747878
0.31582093 -0.53449202 0.021674195
0.31837681 -0.53458834 0.021600522
0.32106856 -0.53444415 0.021625808
0.32368591 -0.53404993 0.021872876
0.32623866 -0.53414649 0.021799283
0.3288126 -0.53428829 0.022008037
0.33156344 -0.53433919 0.022229502
0.33410999 -0.53443515 0.02215608
0.33665657 -0.53453112 0.022082677
0.33920315 -0.5346272 0.022009267
0.34176582 -0.53429854 0.021940306
0.34432852 -0.53397 0.021871341
0.34687507 -0.53406596 0.021797935
0.34942162 -0.53416204 0.021724526
0.35196817 -0.53425807 0.02165111
0.35468128 -0.53444541 0.021571919
0.35760441 -0.53439319 0.021489531
0.36045671 -0.53457803 0.021406416
0.3630946 -0.53450739 0.021332333
0.36549073 -0.53408754 0.021269161
0.36812866 -0.53401691 0.021195075
0.37067521 -0.53411293 0.021121671
0.37322176 -0.53420895 0.021048257
0.37598142 -0.53442013 0.021967927
0.37851864 -0.5345158 0.021894787
0.38105589 -0.53461146 0.02182164
0.38368168 -0.53440231 0.021749508
0.38616249 -0.53395677 0.021684222
0.38876826 -0.53406394 0.022509417
0.3913942 -0.53425801 0.022532664
0.39392206 -0.53435332 0.022459796
0.39644998 -0.53444862 0.022386918
0.39897788 -0.53454393 0.022314046
0.40150583 -0.53463912 0.022241175
0.40397742 -0.53419518 0.02217613
0.40659365 -0.53398687 0.022104263
0.40928683 -0.53417283 0.022025649
0.4122878 -0.53420973 0.022023397
0.41502962 -0.53454041 0.02210848
0.41757035 -0.53451228 0.022203416
0.42011532 -0.53442299 0.022382313
0.42265549 -0.53433424 0.022561342
0.42510614 -0.53411281 0.022577697
0.42771506 -0.53404307 0.022504428
0.43023363 -0.53413796 0.022431821
0.43275222 -0.53423297 0.022359222
0.43527079 -0.53432786 0.022286624
0.43778938 -0.53442287 0.022214025
0.44061029 -0.53460568 0.022131814
0.44349933 -0.53433198 0.022353088
0.44617176 -0.53399885 0.022981375
0.448681 -0.53409338 0.022909045
0.45119026 -0.53418803 0.022836715
0.45369953 -0.53428257 0.022764385
0.45620871 -0.53437722 0.022692055
0.45871803 -0.53447175 0.022619724
0.46122727 -0.53456634 0.022547381
0.46382648 -0.53449678 0.022474384
0.46693859 -0.53383625 0.022727154
0.46958032 -0.53407604 0.022649378
0.4720844 -0.53417045 0.022577196
0.47449133 -0.53432631 0.023174047
0.47699124 -0.53442061 0.023101985
0.47949117 -0.53451484 0.023029923
0.48199108 -0.53460908 0.022957861
0.484837 -0.53438246 0.022879684
0.48769242 -0.5339058 0.022804126
0.48993912 -0.53407395 0.022738388
0.4977079 -0.53386593 0.022520214
0.50175351 -0.53502989 0.023392379
0.50351661 -0.53437811 0.02334984
0.50576377 -0.53402597 0.023290101
0.50857002 -0.53380173 0.02321302
0.51093298 -0.53412849 0.023142159
0.51319087 -0.53409475 0.023078445
0.53739899 -0.53494161 0.023381839
0.2804299 -0.53047764 0.021724939
0.28210756 -0.53139758 0.021666668
0.2846728 -0.53149426 0.021592719
0.287238 -0.53159094 0.021518774
0.28980318 -0.53168762 0.021444827
0.29236844 -0.53178436 0.021370878
0.29511952 -0.53191108 0.021491393
0.29770297 -0.53210461 0.02163258
0.30035195 -0.53167492 0.021701293
0.30285755 -0.53144366 0.021493869
0.30554387 -0.53136122 0.021668673
0.30825046 -0.53164607 0.021922013
0.31080639 -0.53174245 0.021848338
0.31336224 -0.53183889 0.021774659
0.31591809 -0.53193516 0.021700986
0.31847396 -0.53203154 0.021627298
0.32104605 -0.53170186 0.021558087
0.32361814 -0.53137201 0.021488871
0.3262223 -0.5313009 0.02179094
0.32922384 -0.53159356 0.022327643
0.33166027 -0.53179169 0.022256183
0.33420679 -0.53188771 0.022182772
0.33675337 -0.53198367 0.022109369
0.33939129 -0.5319131 0.02203528
0.3417874 -0.53149319 0.02197211
0.34442532 -0.53142262 0.021898024
0.34697187 -0.53151858 0.021824619
0.34951842 -0.53161454 0.021751208
0.352065 -0.53171062 0.021677801
0.35461155 -0.53180665 0.021604393
0.35715809 -0.53190255 0.021530977
0.35987121 -0.53208995 0.021451786
0.36272594 -0.53180325 0.021374047
0.36551231 -0.53128219 0.02130096
0.36822546 -0.53146952 0.021221766
0.370772 -0.53156549 0.021148361
0.37331855 -0.53166151 0.021074941
0.37595013 -0.53185362 0.021798378
0.37861511 -0.53197765 0.021921376
0.38124332 -0.53190726 0.021847567
0.38363069 -0.53148901 0.021784622
0.38625896 -0.53141856 0.021710813
0.38891494 -0.53162616 0.021905858
0.39145911 -0.53148788 0.022312716
0.39398932 -0.53158325 0.022239776
0.3965461 -0.53191978 0.022413412
0.39907402 -0.53201509 0.022340536
0.4016901 -0.53180677 0.022268672
0.40416181 -0.53136277 0.022203624
0.40668973 -0.53145808 0.022130754
0.40921763 -0.53155339 0.022057882
0.41191083 -0.53173935 0.021979267
0.41481256 -0.53168762 0.021897482
0.41764396 -0.53187108 0.021814972
0.42017186 -0.53196645 0.021742105
0.42279753 -0.53182316 0.021769259
0.42529222 -0.53142864 0.022603422
0.42781079 -0.53152359 0.022530824
0.43032935 -0.53161854 0.022458225
0.43284798 -0.53171349 0.02238562
0.43536651 -0.5318085 0.022313016
0.43788508 -0.53190345 0.02224041
0.4404037 -0.5319984 0.022167802
0.44322255 -0.53158349 0.02291113
0.44610304 -0.53139865 0.023013389
0.44877639 -0.53158325 0.022935351
0.45128563 -0.5316779 0.022863008
0.45379484 -0.53177243 0.02279067
0.45630419 -0.53186703 0.02271834
0.45881334 -0.53196174 0.02264601
0.46141261 -0.53189212 0.02257302
0.46377608 -0.53161556 0.022509117
0.46637297 -0.53140873 0.022437781
0.46925581 -0.53158993 0.022430791
0.47216967 -0.53177226 0.02264417
0.47458634 -0.5318256 0.023200244
0.47708628 -0.53191978 0.023128182
0.47958618 -0.53201407 0.02305612
0.48210195 -0.53169155 0.022988424
0.48461771 -0.53136897 0.022920728
0.48741782 -0.53155041 0.022839136
0.48941714 -0.5313412 0.022784792
0.49628401 -0.53180879 0.022584409
0.49795061 -0.53187162 0.022536367
0.50353783 -0.53182989 0.023378674
0.50588357 -0.53135991 0.02331751
0.50853705 -0.53154314 0.02324006
0.51102763 -0.53163695 0.023168266
0.51351821 -0.53173095 0.023096472
0.51551706 -0.53163993 0.023040777
0.27948272 -0.52912408 0.021517336
0.28220508 -0.52883136 0.02169355
0.28477031 -0.5289281 0.021619601
0.28733549 -0.52902484 0.021545656
0.28990066 -0.52912152 0.021471709
0.29246596 -0.52921826 0.02139776
0.29503119 -0.52931494 0.021323813
0.29759634 -0.52941167 0.021249864
0.30025357 -0.52934057 0.021175245
0.30275929 -0.5287497 0.021110931
0.30532452 -0.52884644 0.021036983
0.3081477 -0.52896851 0.021683021
0.31090352 -0.52918571 0.021875123
0.3134594 -0.52928209 0.021801446
0.31601527 -0.52937841 0.021727761
0.31866282 -0.52930754 0.021653417
0.32106778 -0.52888608 0.021590004
0.32371533 -0.52881521 0.021515658
0.32639214 -0.52901375 0.021537412
0.32916394 -0.52922696 0.022245526
0.33175707 -0.52924424 0.022282872
0.33430362 -0.52934027 0.022209456
0.33685017 -0.52943629 0.022136053
0.33934009 -0.52898902 0.022070521
0.34197557 -0.52877915 0.021998128
0.34452212 -0.52887511 0.021924714
0.34706867 -0.52897114 0.021851311
0.34961525 -0.5290671 0.021777891
0.35216177 -0.52916312 0.021704486
0.35470837 -0.52925915 0.021631075
0.35725489 -0.52935517 0.021557668
0.35980144 -0.52945113 0.02148426
0.36229137 -0.52900386 0.021418732
0.36509341 -0.52888536 0.021340553
0.36789784 -0.52890605 0.021260684
0.37070224 -0.52892673 0.021180827
0.37341535 -0.52911401 0.021101633
0.37582499 -0.52935755 0.021405581
0.37840691 -0.52935106 0.021957634
0.38119239 -0.52899402 0.021882681
0.38381818 -0.52878487 0.021810541
0.38635537 -0.52888048 0.021737406
0.38889262 -0.52897614 0.021664262
0.39142984 -0.52907187 0.021591118
0.39396706 -0.52916741 0.021517983
0.39651459 -0.52934134 0.022080295
0.39925832 -0.52918267 0.022368036
0.40163937 -0.52890414 0.02230365
0.40425789 -0.5288341 0.022230119
0.40678585 -0.52892929 0.022157244
0.40931374 -0.52902466 0.022084376
0.41184163 -0.52911991 0.022011498
0.41436952 -0.52921522 0.021938629
0.41720092 -0.52939868 0.021856122
0.42010266 -0.52934688 0.021774333
0.42273962 -0.52899367 0.021703549
0.42538798 -0.52890921 0.022629827
0.42790654 -0.52900422 0.022557219
0.43042511 -0.52909917 0.022484614
0.4329437 -0.52919412 0.02241201
0.43546227 -0.52928901 0.022339404
0.43798086 -0.52938396 0.022266805
0.44058976 -0.52931416 0.022193545
0.44293922 -0.52882528 0.022932846
0.44582736 -0.52903455 0.023048522
0.44870773 -0.52898318 0.022967344
0.45138106 -0.52916771 0.022889316
0.45389026 -0.52926236 0.022816982
0.4563995 -0.52935702 0.022744639
0.45899877 -0.52928734 0.022671644
0.46136224 -0.52901083 0.022607733
0.46395907 -0.52880406 0.022536397
0.46646827 -0.52889866 0.022464067
0.46897757 -0.52899325 0.022391737
0.47183335 -0.52915919 0.022808976
0.47468138 -0.52932477 0.02322644
0.47718132 -0.52941906 0.023154378
0.47969708 -0.52909654 0.023086682
0.48221281 -0.52877396 0.023018986
0.48471275 -0.52886814 0.022946924
0.48721266 -0.52896243 0.022874862
0.4896124 -0.52894855 0.022806894
0.49182755 -0.5283016 0.02275148
0.49589175 -0.5289557 0.02262851
0.49793753 -0.5294711 0.022564474
0.50560999 -0.52901334 0.023352398
0.50846893 -0.52896231 0.023271823
0.51112235 -0.52914548 0.023194373
0.51361293 -0.52923942 0.023122579
0.51610351 -0.52933335 0.023050778
0.27863634 -0.52667344 0.020819318
0.28273013 -0.52628142 0.021708107
0.28486782 -0.526362 0.021646487
0.28743303 -0.52645874 0.021572538
0.28999823 -0.52655542 0.021498591
0.29256344 -0.5266521 0.021424642
0.29512867 -0.5267489 0.021350695
0.29769388 -0.52684557 0.021276746
0.30027533 -0.52651459 0.021207279
0.3028568 -0.52618361 0.021137813
0.30542204 -0.52628028 0.021063864
0.30811492 -0.52648103 0.021085138
0.31077683 -0.52666438 0.021607717
0.31355655 -0.52672529 0.021828225
0.31611246 -0.52682167 0.02175455
0.31868452 -0.52649182 0.021685332
0.32125664 -0.52616215 0.021616122
0.32381248 -0.52625847 0.021542439
0.32636836 -0.52635479 0.021468766
0.32914522 -0.52656734 0.022187859
0.33185387 -0.52669686 0.022309558
0.33440042 -0.52679282 0.022236148
0.33703834 -0.52672219 0.02216207
0.33952582 -0.52613568 0.022098223
0.34207237 -0.52623165 0.022024818
0.34461892 -0.52632767 0.021951398
0.3471655 -0.52642369 0.021877995
0.34971204 -0.52651966 0.02180458
0.35225856 -0.52661568 0.021731177
0.35480514 -0.5267117 0.021657761
0.35735169 -0.52680773 0.021584352
0.35998717 -0.52659792 0.02151195
0.36247706 -0.52615052 0.021446427
0.36502364 -0.52624655 0.02137302
0.36757025 -0.52634257 0.02129961
0.37028331 -0.52652991 0.02122042
0.37320644 -0.52647775 0.021138024
0.37554297 -0.52681321 0.021067817
0.37805328 -0.5267036 0.021998266
0.38059971 -0.52635282 0.021930017
0.38361004 -0.52615815 0.021846807
0.38645184 -0.52634239 0.02176399
0.38898909 -0.526438 0.021690853
0.39152631 -0.52653366 0.021617711
0.39406353 -0.52662933 0.021544566
0.39671224 -0.52675527 0.021668006
0.39920753 -0.52628005 0.022403013
0.40182611 -0.52621001 0.022329479
0.40435404 -0.52630526 0.022256609
0.40688193 -0.52640057 0.022183737
0.40940985 -0.52649581 0.022110863
0.41193774 -0.52659112 0.022037992
0.41446564 -0.52668643 0.021965116
0.4169935 -0.5267818 0.02189225
0.41975415 -0.5268091 0.021813553
0.42250267 -0.52614528 0.021743191
0.42546782 -0.52632236 0.0221572
0.42792746 -0.52630442 0.022405911
0.43052086 -0.52657968 0.022511005
0.43303943 -0.52667457 0.022438407
0.43555796 -0.52676952 0.022365808
0.43816692 -0.52669972 0.022292539
0.44053915 -0.52642214 0.022228396
0.44312817 -0.52634931 0.022555912
0.44562155 -0.52643692 0.02308438
0.44829488 -0.52662146 0.023006344
0.45117518 -0.52657008 0.022925166
0.45398569 -0.52675223 0.022843271
0.45658493 -0.52668267 0.022770282
0.4589484 -0.52640611 0.022706378
0.4615452 -0.52619928 0.022635043
0.46405447 -0.52629393 0.022562699
0.4665637 -0.52638853 0.022490356
0.46907294 -0.52648312 0.022418022
0.47192851 -0.52665371 0.022835219
0.47477648 -0.526824 0.023252636
0.47729215 -0.52650148 0.02318494
0.47980791 -0.5261789 0.023117244
0.48230785 -0.52627313 0.023045182
0.48480782 -0.52636737 0.02297312
0.4873077 -0.5264616 0.022901058
0.48980761 -0.5265559 0.022828996
0.49260768 -0.52673727 0.022747405
0.49547729 -0.52668613 0.022666505
0.49750781 -0.52705491 0.022604592
0.50582081 -0.52645063 0.023376033
0.50831145 -0.52654457 0.023304237
0.511217 -0.52665406 0.023220466
0.51370758 -0.526748 0.02314866
0.51609051 -0.52694178 0.023078766
0.27925348 -0.52400291 0.020832658
0.28282765 -0.52371526 0.021734992
0.28496534 -0.52379584 0.021673368
0.28753054 -0.52389264 0.021599421
0.29009575 -0.52398932 0.021525472
0.29266098 -0.524086 0.021451524
0.29522622 -0.52418274 0.021377577
0.29788339 -0.52411157 0.021302957
0.30029711 -0.52368861 0.021239316
0.30295432 -0.52361751 0.021164695
0.30551952 -0.52371418 0.021090746
0.30808476 -0.52381086 0.021016799
0.31094754 -0.52401721 0.021600107
0.31365377 -0.52416855 0.021855013
0.31620961 -0.52426487 0.021781335
0.31870621 -0.52367616 0.021717256
0.32135379 -0.52360529 0.021642903
0.32390964 -0.52370167 0.02156923
0.32646555 -0.52379811 0.021495543
0.32882497 -0.52382696 0.021857006
0.33140758 -0.52420622 0.022351008
0.33433074 -0.52415407 0.022268614
0.3369872 -0.52379811 0.022197308
0.33962265 -0.52358824 0.022124907
0.34216917 -0.52368426 0.0220515
0.34471574 -0.52378023 0.02197809
0.34726229 -0.52387625 0.021904686
0.34980884 -0.52397221 0.021831265
0.35235542 -0.52406818 0.021757862
0.35490194 -0.5241642 0.021684447
0.35744849 -0.52426028 0.021611044
0.35993603 -0.52367377 0.021547195
0.36257389 -0.52360314 0.021473119
0.36512047 -0.5236991 0.021399707
0.36766702 -0.52379513 0.021326294
0.3702136 -0.52389115 0.021252887
0.37264997 -0.52408928 0.021181423
0.37554476 -0.5242967 0.021668533
0.37800229 -0.52379012 0.02203338
0.38062808 -0.52358103 0.021961242
0.3831653 -0.52367669 0.021888098
0.38600719 -0.52386087 0.021805288
0.38891959 -0.52380896 0.021723201
0.39162278 -0.52399564 0.021644302
0.39415997 -0.52409124 0.021571156
0.39669719 -0.52418691 0.021498015
0.39934 -0.52381802 0.022094216
0.40192226 -0.52368116 0.022355974
0.40445009 -0.52377647 0.022283098
0.40697801 -0.52387178 0.022210227
0.4095059 -0.52396703 0.022137353
0.41203383 -0.5240624 0.022064481
0.41456169 -0.52415764 0.021991611
0.41708961 -0.52425301 0.02191874
0.4195613 -0.52380902 0.021853693
0.42217746 -0.5236007 0.021781825
0.42500886 -0.5237841 0.021699317
0.42800102 -0.52383274 0.021704758
0.43061659 -0.52406019 0.022537407
0.43313518 -0.5241552 0.022464802
0.43574405 -0.52408534 0.022391533
0.43811634 -0.52380776 0.022327388
0.44072282 -0.52360022 0.022255782
0.44331846 -0.52379566 0.022279877
0.44573843 -0.52385765 0.022610642
0.44816515 -0.52384102 0.022860264
0.45089951 -0.52420598 0.022960311
0.45387986 -0.52402502 0.022877775
0.4565345 -0.52380139 0.022804994
0.45913136 -0.52359462 0.022733659
0.46164057 -0.52368915 0.022661328
0.46414983 -0.5237838 0.022588998
0.46665913 -0.5238784 0.022516668
0.46916834 -0.52397305 0.02244433
0.47178444 -0.5242092 0.02276752
0.47464925 -0.52389747 0.023290068
0.4774031 -0.52358389 0.023215503
0.47990301 -0.52367812 0.02314344
