# .PCD v0.7 - Point Cloud Data file format
VERSION 0.7
FIELDS x y z
SIZE 4 4 4
TYPE F F F
COUNT 1 1 1
WIDTH 1384
HEIGHT 1
VIEWPOINT 0 0 0 1 0 0 0
POINTS 1384
DATA ascii
0.56531304 -0.18066433 0.024654219
0.56794268 -0.18088979 0.025122749
0.52142757 -0.17818926 0.0259273
0.5237056 -0.17820568 0.025195519
0.52628887 -0.1782683 0.024788043
0.52892244 -0.17845003 0.024711261
0.53183699 -0.17806451 0.024633065
0.53447133 -0.17791609 0.024560073
0.53703189 -0.17784745 0.024488257
0.53950387 -0.17794055 0.024417082
0.54209626 -0.1781311 0.024441415
0.54457051 -0.17819706 0.024886124
0.54731625 -0.17834191 0.025191387
0.54986715 -0.1782735 0.025119845
0.55225694 -0.17811681 0.025053883
0.55503088 -0.17788486 0.024977894
0.55785763 -0.17783433 0.024898324
0.56048125 -0.17801537 0.024821827
0.56294394 -0.17810811 0.024750927
0.56550562 -0.1781542 0.024977887
0.56826985 -0.1782489 0.025598729
0.52152109 -0.17572576 0.025953094
0.5237993 -0.175736 0.025221381
0.52638268 -0.1757955 0.024813941
0.52887034 -0.17547645 0.024747083
0.53142434 -0.17538504 0.024675716
0.53435701 -0.17519534 0.024594737
0.53712583 -0.17537464 0.024514155
0.53959775 -0.17546774 0.02444298
0.54206967 -0.17556082 0.024371807
0.54479384 -0.17565371 0.024755243
0.54742533 -0.17546785 0.025221495
0.5498175 -0.1754458 0.025153907
0.55236608 -0.17524277 0.02508398
0.5548287 -0.1753355 0.025013076
0.55770183 -0.17544369 0.024930352
0.56057477 -0.17555191 0.024847634
0.5630374 -0.17564465 0.024776723
0.56575042 -0.17557755 0.025272252
0.56822038 -0.17543191 0.025632663
0.52168214 -0.17302991 0.025979668
0.52381063 -0.17277652 0.025558423
0.5264923 -0.17291057 0.024844155
0.52897984 -0.17259152 0.024777297
0.53145176 -0.17268464 0.024706125
0.53422052 -0.17286395 0.024625538
0.537058 -0.17281322 0.02454566
0.53969163 -0.17299496 0.024468878
0.54216361 -0.17308804 0.024397705
0.54485554 -0.17328706 0.024500972
0.54733098 -0.1726117 0.024923654
0.54999697 -0.17268658 0.025180688
0.5524596 -0.17277929 0.025109781
0.55492228 -0.17287204 0.025038878
0.55754584 -0.17305309 0.024962386
0.56037265 -0.17300256 0.024882805
0.56313092 -0.17318121 0.024802526
0.56580883 -0.17276719 0.024998158
0.56828898 -0.17258415 0.025563559
0.52211857 -0.17081431 0.02599287
0.52393091 -0.16992362 0.025551576
0.52660179 -0.17002565 0.024874369
0.52907372 -0.17011875 0.024803195
0.5315457 -0.17021184 0.024732023
0.53401756 -0.17030494 0.024660846
0.53690153 -0.17041354 0.024577813
0.5397855 -0.17052215 0.024494777
0.54225743 -0.17061526 0.024423603
0.54474503 -0.17029621 0.024356743
0.54742748 -0.17015159 0.024639662
0.55009055 -0.17022307 0.025206486
0.55255312 -0.17031583 0.025135586
0.55501574 -0.17040858 0.025064677
0.55747837 -0.17050131 0.024993768
0.56023657 -0.17067996 0.024913492
0.56300998 -0.17018102 0.024840608
0.56571823 -0.1699893 0.024766019
0.56825095 -0.1703233 0.024940455
0.524432 -0.16776632 0.025128743
0.52669567 -0.16755284 0.024900267
0.52916759 -0.16764593 0.024829097
0.53163952 -0.16773902 0.024757922
0.5341115 -0.16783212 0.024686746
0.53658342 -0.16792522 0.024615576
0.53959399 -0.16780277 0.024531616
0.54236692 -0.16773032 0.024453817
0.54485452 -0.16741127 0.024386963
0.54763037 -0.16755272 0.024556728
0.55018401 -0.16775961 0.025232293
0.55264664 -0.16785236 0.025161378
0.55510926 -0.1679451 0.025090476
0.55766022 -0.16787671 0.02501893
0.56005007 -0.16772002 0.024952969
0.56282395 -0.16748808 0.024876984
0.5656507 -0.16743755 0.024797406
0.56827438 -0.16761857 0.024720917
0.52484304 -0.16525078 0.025229521
0.52678955 -0.16508003 0.024926165
0.52926141 -0.16517313 0.024854995
0.53173339 -0.16526623 0.02478382
0.53420532 -0.16535932 0.024712645
0.53676361 -0.16515552 0.024642456
0.53923613 -0.16506729 0.024573356
0.54217964 -0.16475916 0.024493445
0.54494834 -0.16493846 0.024412861
0.54737604 -0.16495596 0.024454977
0.54986709 -0.16528068 0.025269903
0.55274016 -0.1653889 0.025187185
0.55521834 -0.16507107 0.025120581
0.55761057 -0.16504902 0.025052993
0.56015915 -0.16484597 0.024983069
0.56262177 -0.1649387 0.024912162
0.56549484 -0.16504692 0.024829442
0.5683679 -0.16515511 0.02474672
0.52647144 -0.16259174 0.024963925
0.52935535 -0.16270036 0.024880894
0.53182727 -0.16279343 0.024809718
0.53431487 -0.16247439 0.024742858
0.53671384 -0.16231713 0.024676651
0.53927445 -0.16224845 0.024604827
0.54204315 -0.16242777 0.024524244
0.54488063 -0.16237706 0.024444366
0.5475142 -0.16255878 0.02436758
0.54982501 -0.16285267 0.025132397
0.55261922 -0.16238873 0.025225267
0.55532748 -0.16219702 0.025150677
0.55779004 -0.16228975 0.025079774
0.56025267 -0.16238251 0.025008867
0.56271529 -0.16247524 0.024937967
0.56533897 -0.16265631 0.02486147
0.56816572 -0.16260576 0.02478189
0.52631503 -0.16019204 0.024996081
0.5292511 -0.16001371 0.024914877
0.53193682 -0.1599085 0.02483993
0.53442442 -0.15958947 0.024773074
0.53689635 -0.15968257 0.024701903
0.53936827 -0.15977566 0.024630725
0.54184026 -0.15986876 0.024559554
0.54472417 -0.15997736 0.024476519
0.54760814 -0.16008598 0.024393478
0.54995829 -0.16017957 0.024780519
0.55243319 -0.1596958 0.025261642
0.55525994 -0.15964526 0.025182065
0.55788356 -0.15982628 0.025105575
0.56034619 -0.15991905 0.025034674
0.56280875 -0.16001177 0.024963759
0.5652715 -0.16010454 0.024892857
0.5680297 -0.16028316 0.024812577
0.52643371 -0.15754594 0.025023274
0.52897018 -0.15732045 0.024953956
0.53188467 -0.15693493 0.024875754
0.53451824 -0.15711667 0.024798973
0.53699017 -0.15720975 0.024727801
0.53946215 -0.15730283 0.024656624
0.54193413 -0.15739594 0.024585452
0.544406 -0.15748903 0.024514278
0.54728997 -0.15759766 0.024431242
0.55015546 -0.15723948 0.024437495
0.55224288 -0.15696257 0.025116699
0.55510408 -0.15725462 0.0252141
0.55797708 -0.15736282 0.025131375
0.56043977 -0.15745556 0.025060466
0.56290233 -0.15754831 0.024989566
0.56545323 -0.15747991 0.024918016
0.56784314 -0.15732323 0.024852052
0.52689034 -0.1551785 0.025037667
0.52884436 -0.15442665 0.024990946
0.53172827 -0.15453525 0.024907907
0.53461212 -0.15464388 0.024824871
0.5370841 -0.15473695 0.024753699
0.53955603 -0.15483004 0.024682522
0.54202795 -0.15492314 0.02461135
0.54449987 -0.15501624 0.024540177
0.54711062 -0.15479708 0.024468673
0.54988706 -0.15439369 0.0243946
0.5528053 -0.15460557 0.024409447
0.55521935 -0.15490828 0.02454528
0.55774033 -0.15471436 0.024937797
0.56053323 -0.1549921 0.025086271
0.56301147 -0.15467428 0.025019662
0.5654037 -0.15465222 0.024952082
0.56795228 -0.15444916 0.024882155
0.57041484 -0.15454192 0.024811247
0.52935022 -0.15196937 0.025004983
0.53141004 -0.15204695 0.024945667
0.53429401 -0.15215556 0.024862632
0.53717786 -0.15226418 0.024779597
0.53964984 -0.15235728 0.02470842
0.54220814 -0.15215345 0.02463823
0.54460937 -0.15213132 0.024570391
0.54709697 -0.15181229 0.024503533
0.54973066 -0.15199402 0.024426753
0.55256802 -0.1519433 0.024346871
0.55533677 -0.1521226 0.024266286
0.55789202 -0.1523876 0.024645532
0.56041229 -0.15199193 0.025124352
0.56312054 -0.15180023 0.025049767
0.56558323 -0.15189297 0.024978859
0.56804579 -0.1519857 0.024907956
0.57050836 -0.15207845 0.024837054
0.52985603 -0.14951207 0.02501902
0.53150398 -0.14957413 0.024971565
0.53413761 -0.14975587 0.024894785
0.53697503 -0.14970516 0.024814906
0.5397594 -0.14947234 0.024738632
0.54215837 -0.14931503 0.024672424
0.54471898 -0.14924639 0.024600605
0.54719085 -0.1493395 0.024529431
0.54966283 -0.14943258 0.024458259
0.55243152 -0.14961189 0.024377672
0.555269 -0.14956115 0.024297792
0.55793494 -0.14984795 0.02431893
0.5602262 -0.149299 0.02516073
0.56305301 -0.14924845 0.025081152
0.56567663 -0.1494295 0.025004664
0.56813926 -0.14952224 0.024933755
0.57060188 -0.14961499 0.024862846
0.52991855 -0.14786355 0.025036275
0.53159785 -0.14710134 0.024997463
0.53406978 -0.14719445 0.024926292
0.53678834 -0.14700203 0.024851425
0.53957218 -0.14650117 0.024778264
0.54234082 -0.14668047 0.024697678
0.5448128 -0.14677358 0.024626503
0.54728478 -0.14686668 0.024555329
0.54975671 -0.14695978 0.024484158
0.55222869 -0.14705287 0.02441298
0.55511254 -0.1471615 0.024329945
0.55808276 -0.14697318 0.024247896
0.56002408 -0.14674963 0.025195906
0.56289721 -0.14685781 0.025113188
0.56577021 -0.14696603 0.025030456
0.56823277 -0.14705878 0.024959555
0.57069546 -0.14715151 0.024888651
0.53200465 -0.14453715 0.025015544
0.53417933 -0.14430951 0.024956508
0.53666687 -0.14399046 0.024889648
0.53943557 -0.14416978 0.024809062
0.54227304 -0.14411905 0.024729183
0.54490674 -0.14430079 0.024652401
0.54737854 -0.14439388 0.024581227
0.54985052 -0.14448698 0.024510056
0.55232251 -0.14458007 0.024438879
0.55488068 -0.14437626 0.02436869
0.55758303 -0.14418857 0.024294227
0.56011754 -0.14428617 0.025221709
0.56274128 -0.1444672 0.025145212
0.56556803 -0.14441667 0.025065638
0.56832635 -0.14459532 0.024985356
0.57080448 -0.14427747 0.02491875
0.53219759 -0.14217126 0.0250374
0.53428882 -0.14142458 0.024986722
0.53676075 -0.14151767 0.024915546
0.53923267 -0.14161077 0.024844371
0.54211658 -0.14171939 0.024761336
0.54500055 -0.14182799 0.024678299
0.54747248 -0.14192109 0.024607126
0.5499444 -0.14201419 0.024535954
0.552432 -0.14169516 0.024469092
0.55483091 -0.14153786 0.024402883
0.55751514 -0.14152642 0.024952199
0.56021112 -0.14182271 0.025247505
0.56267381 -0.14191546 0.025176605
0.56543201 -0.14209408 0.02509632
0.56820536 -0.14159513 0.02502344
0.57091361 -0.14140344 0.024948852
0.53491116 -0.13952197 0.024991045
0.53685468 -0.13904488 0.024941444
0.53932655 -0.13913795 0.024870269
0.54179847 -0.13923107 0.024799099
0.54468244 -0.13933967 0.024716059
0.54765499 -0.13928655 0.024632376
0.55005389 -0.13912925 0.024566166
0.55254149 -0.13881022 0.024499306
0.55522054 -0.13900471 0.0247849
0.55784202 -0.13926649 0.025344213
0.56030464 -0.13935922 0.02527331
0.56285328 -0.13915618 0.025203379
0.56524545 -0.13913414 0.0251358
0.56813407 -0.13883175 0.025057375
0.57100713 -0.13893996 0.024974653
0.53709477 -0.13666575 0.02529561
0.53942043 -0.13666517 0.024896167
0.54189229 -0.13675827 0.024824997
0.54457814 -0.13665307 0.024750048
0.5472706 -0.13637121 0.024676951
0.55016345 -0.13624431 0.024596384
0.55263537 -0.13633741 0.024525205
0.55536062 -0.13666603 0.024777628
0.55793554 -0.136803 0.025370011
0.56041378 -0.13648517 0.025303409
0.56280363 -0.13632849 0.02523745
0.56535459 -0.13626009 0.025165895
0.56781715 -0.13635284 0.025094995
0.57069021 -0.13646103 0.025012271
0.53728652 -0.13396953 0.025988303
0.5395143 -0.13419236 0.024922065
0.5420019 -0.13387333 0.024855211
0.54440081 -0.13371603 0.024788996
0.54712313 -0.13373603 0.02471157
0.54996055 -0.13368529 0.024631692
0.55272931 -0.1338646 0.024551103
0.55531728 -0.13403122 0.024976036
0.55781454 -0.13380283 0.025408098
0.56052285 -0.13361114 0.025333511
0.56298548 -0.13370387 0.025262604
0.56544805 -0.13379663 0.025191704
0.56791067 -0.13388938 0.025120791
0.57053435 -0.1340704 0.025044298
0.53932416 -0.13128898 0.025739146
0.54211825 -0.13103519 0.025456408
0.54478598 -0.13123304 0.02530699
0.5470432 -0.13145435 0.025140375
0.54997456 -0.13155968 0.024655849
0.55266142 -0.13130318 0.02458261
0.55501109 -0.13111649 0.025185129
0.55762857 -0.13110991 0.025444476
0.56045532 -0.13105938 0.0253649
0.56307894 -0.13124043 0.025288407
0.56554157 -0.13133317 0.025217496
0.56800419 -0.13142592 0.025146594
0.57046676 -0.13151865 0.025075691
0.53973091 -0.12912762 0.0259749
0.54179871 -0.12879433 0.025920114
0.54467183 -0.12890254 0.025837397
0.54754472 -0.12901074 0.02575467
0.54985267 -0.12836668 0.025696661
0.55258238 -0.12877859 0.025014207
0.55496383 -0.12846781 0.025550554
0.55742645 -0.12856054 0.025479654
0.56029946 -0.12866874 0.025396928
0.56317258 -0.12877695 0.025314203
0.56563514 -0.1288697 0.025243303
0.56809777 -0.12896244 0.025172392
0.57064623 -0.1287594 0.025102468
0.54268193 -0.12718293 0.025913686
0.54480261 -0.12644047 0.02586212
0.54742384 -0.12601054 0.025792753
0.55013204 -0.12581885 0.025718169
0.55259472 -0.12591159 0.025647262
0.55505729 -0.12600434 0.025576361
0.55751991 -0.12609707 0.02550545
0.56014359 -0.12627812 0.025428956
0.5629704 -0.1262276 0.025349384
0.5657286 -0.12640624 0.0252691
0.56820685 -0.1260884 0.025202498
0.57059675 -0.1259317 0.025136534
0.54526925 -0.12399105 0.025877178
0.54734629 -0.1234114 0.02582497
0.55006456 -0.12326708 0.025749559
0.55268824 -0.12344813 0.025673065
0.55515087 -0.12354088 0.025602153
0.55761343 -0.12363361 0.025531253
0.56007606 -0.12372635 0.025460346
0.56288326 -0.12376355 0.025380312
0.56560773 -0.12340605 0.025307182
0.56831592 -0.12321435 0.025232596
0.57077861 -0.12330709 0.025161693
0.54782534 -0.12162033 0.025832087
0.55006659 -0.12104689 0.025775138
0.55278176 -0.12098467 0.025698861
0.55524433 -0.12107742 0.025627961
0.55770695 -0.12117016 0.02555705
0.56025559 -0.12096712 0.025487127
0.56257743 -0.12083029 0.025422866
0.56553644 -0.12064269 0.025341118
0.56840944 -0.12075089 0.025258401
0.57087207 -0.12084363 0.025187489
0.55284411 -0.11934236 0.025716066
0.55548334 -0.11911283 0.025643874
0.55778491 -0.11911727 0.025578553
0.56027865 -0.11838885 0.025516249
0.5627569 -0.11807103 0.025449643
0.56521946 -0.11816377 0.025378741
0.56809253 -0.11827197 0.025296012
0.57096553 -0.11838016 0.025213292
0.56311363 -0.11589158 0.025464699
0.56531304 -0.1157003 0.025404533
0.56793672 -0.11588134 0.025328046
0.57076341 -0.11583081 0.025248468
0.56593299 -0.11380488 0.025408855
0.56785357 -0.11374015 0.02535513
0.57072663 -0.11384836 0.025272414
0.57303339 -0.11340658 0.0252121
0.57010818 0.069615483 0.023407027
0.56896889 0.072580151 0.023473576
0.57061183 0.071892187 0.023419045
0.56861556 0.074263036 0.023503035
0.57058805 0.074264638 0.023447124
0.56816554 0.077062622 0.023548136
0.57037711 0.07670106 0.02348125
0.57246041 0.076622613 0.023421267
0.50106806 0.079245247 0.02347514
0.50300926 0.079627693 0.02342451
0.56807232 0.079187885 0.023575328
0.570472 0.079201855 0.023507442
0.57297194 0.079107702 0.023435444
0.49852896 0.081751794 0.023576086
0.50081658 0.081847869 0.023512321
0.50342369 0.082240269 0.023442924
0.50513464 0.083016858 0.023403376
0.57088763 0.08135666 0.023520529
0.57306689 0.081608504 0.02346164
0.57495767 0.081954688 0.023412026
0.4980996 0.084363118 0.023618426
0.49995342 0.084333338 0.023565518
0.50350338 0.08433982 0.023464913
0.50541627 0.084898546 0.023417115
0.57342905 0.083820969 0.023476928
0.57550466 0.084763087 0.023428956
0.50579143 0.087029018 0.023431098
0.50700498 0.087992534 0.023407817
0.57605559 0.087061204 0.023439879
0.57747078 0.087703571 0.023407146
0.51116538 0.097928077 0.023404583
0.5745331 0.09824907 0.023612261
0.57635373 0.09784659 0.023555988
0.5785203 0.097764991 0.023493612
0.51168084 0.10043173 0.023418874
0.51255226 0.10123993 0.023403496
0.57409012 0.099768363 0.023642372
0.57609951 0.099943131 0.023587415
0.57885265 0.099922925 0.023509106
0.58120483 0.10033522 0.023447152
0.58299279 0.10126963 0.023407251
0.51144707 0.10313179 0.023456698
0.51283389 0.10312162 0.023417257
0.57382637 0.10161484 0.02367118
0.5758248 0.10229848 0.023622412
0.57856172 0.10291345 0.023551885
0.58138943 0.10299959 0.023472697
0.58339572 0.10309099 0.023416866
0.51145232 0.10548645 0.023483738
0.51331592 0.1055364 0.023431476
0.5761804 0.10500448 0.023643574
0.5783146 0.10553627 0.023589185
0.58118421 0.10558757 0.023508411
0.58356768 0.10542192 0.023438916
0.51166666 0.10744075 0.023500225
0.51374781 0.10781793 0.023445569
0.51534182 0.10828353 0.023405746
0.57824612 0.10812671 0.023621053
0.58090949 0.10794292 0.023543408
0.58335406 0.10803869 0.023475196
0.51416224 0.1104305 0.023464004
0.5157637 0.11053839 0.023419827
0.5512135 0.11118626 0.02342248
0.57875764 0.1106118 0.023635253
0.58084095 0.11053334 0.023575276
0.58334088 0.1104392 0.023503283
0.51425785 0.11294995 0.023490384
0.51625574 0.11297984 0.02343408
0.55044061 0.11289117 0.023464104
0.55187905 0.11295671 0.023424055
0.57926923 0.11309692 0.023649454
0.5809359 0.11303414 0.023601463
0.58343577 0.11293999 0.02352947
0.5143376 0.1150495 0.023512363
0.51628768 0.11548066 0.023462048
0.51844311 0.11615642 0.023408731
0.55053592 0.11540131 0.023490399
0.55229872 0.1155025 0.023441564
0.55391335 0.11611202 0.02340281
0.58113098 0.11542681 0.023623552
0.58353072 0.11544078 0.023555666
0.5163579 0.11782353 0.023487125
0.5185107 0.11867692 0.023435926
0.55185401 0.11702747 0.023471802
0.58192742 0.11717074 0.023621112
0.58362567 0.11794157 0.023581862
0.51835454 0.12120586 0.023469567
0.52025145 0.12134468 0.023417383
0.58415312 0.12084347 0.023600429
0.5184502 0.12372532 0.023495946
0.52073342 0.12375947 0.023431595
0.58446425 0.12354483 0.023622803
0.51896566 0.12622897 0.023510262
0.52106446 0.12614992 0.023449821
0.52274346 0.1260867 0.023401469
0.58477545 0.12624617 0.023645163
0.48769027 0.12891389 0.023427682
0.51906121 0.12874843 0.023536637
0.52116001 0.12866937 0.023476213
0.5848704 0.12874697 0.023671359
0.51923448 0.13109675 0.023558849
0.52125573 0.13118882 0.023502588
0.52327693 0.13128093 0.02344634
0.55868304 0.13143361 0.023444533
0.55972064 0.13118505 0.023412243
0.58493364 0.13041416 0.023688823
0.45502353 0.13456407 0.023418844
0.5196563 0.13335162 0.023572937
0.52135128 0.1337083 0.023528989
0.52386993 0.13361344 0.023456462
0.52558088 0.13439001 0.023416907
0.55876243 0.13352539 0.023466438
0.56029022 0.13405439 0.023429226
0.45591745 0.13580129 0.023407772
0.52154791 0.13611881 0.023551248
0.52405596 0.13629767 0.0234822
0.52566051 0.13648957 0.023438908
0.56105787 0.13662298 0.023437124
0.56225109 0.13716456 0.023409545
0.58517098 0.13666613 0.023754314
0.52216434 0.13851354 0.023561418
0.52400517 0.13918965 0.023517029
0.52599001 0.13963097 0.023465842
0.56146228 0.13845113 0.023446769
0.56267136 0.13941109 0.023423571
0.58440101 0.13836472 0.023795769
0.58525014 0.13875014 0.023776144
0.52457666 0.14115599 0.023523554
0.52670735 0.14191677 0.023471905
0.52860421 0.14205559 0.023419708
0.56118703 0.14223208 0.023498237
0.56309807 0.14182493 0.023439348
0.58399314 0.14227577 0.023852492
0.58536088 0.14166772 0.023806676
0.45966977 0.14540333 0.023412257
0.5273003 0.14424929 0.023482036
0.52922058 0.14445031 0.023429904
0.56052005 0.14451954 0.023543566
0.56282228 0.14418907 0.023474468
0.56482911 0.14439915 0.023419991
0.58136076 0.14420892 0.023949482
0.58371532 0.14448451 0.023885876
0.58547163 0.14458531 0.023837239
0.45973399 0.14709541 0.02342999
0.46059582 0.14748657 0.023410067
0.52938533 0.14602101 0.023443371
0.53109622 0.1467976 0.023403823
0.56060255 0.14669499 0.023566347
0.56261629 0.14678675 0.023510307
0.56512558 0.14669222 0.023438066
0.58131039 0.14707947 0.02398405
0.58389992 0.14714889 0.023911417
0.58556658 0.14708613 0.023863435
0.45983037 0.14963353 0.023456573
0.46102086 0.14975815 0.023424257
0.56100702 0.14852314 0.023575991
0.5627116 0.14929684 0.023536593
0.56522095 0.14920235 0.023464352
0.56724733 0.14962879 0.023411816
0.58187997 0.14889453 0.023988858
0.5841049 0.14940701 0.023931691
0.58566147 0.1495869 0.023889631
0.4598946 0.1513256 0.023474306
0.46150845 0.15200616 0.023436386
0.56114995 0.15228832 0.023615435
0.56280684 0.15180695 0.023562878
0.5654037 0.15201385 0.023491634
0.56766772 0.15236871 0.023431536
0.5244084 0.15517932 0.023690283
0.52580762 0.15512662 0.02365
0.53409517 0.15492663 0.023412669
0.56090117 0.15456004 0.023648739
0.56298977 0.15461849 0.02359017
0.56535321 0.15489511 0.023526341
0.56795239 0.15496479 0.023453444
0.56964117 0.15532015 0.023409665
0.5239231 0.15715997 0.02372691
0.52600598 0.156661 0.02366209
0.53456771 0.15703942 0.023423662
0.5357402 0.15839697 0.023406088
0.56057578 0.15722312 0.023688717
0.56293923 0.15749973 0.023624893
0.56553853 0.15756942 0.023551971
0.56804776 0.15747494 0.02347973
0.57006145 0.15756667 0.02342369
0.52232373 0.15932275 0.023797259
0.52314734 0.15887122 0.023768693
0.56079262 0.15942398 0.023707986
0.56310862 0.15975569 0.023646146
0.56573439 0.15997101 0.023574159
0.56814307 0.15998504 0.023506016
0.57065231 0.15989055 0.023433775
0.56653374 0.16172147 0.0235717
0.56833887 0.16238666 0.023528196
0.57074761 0.16240066 0.02346006
0.57242042 0.16233768 0.0234119
0.56895298 0.16477248 0.023538336
0.57084286 0.16491078 0.023486346
0.57293391 0.16483204 0.023426145
0.57093817 0.16742091 0.023512632
0.57353503 0.16762781 0.023441387
0.57516789 0.16851848 0.023405373
0.54040015 0.17041625 0.023412779
0.57159638 0.1700495 0.023524323
0.57348454 0.17050906 0.023476094
0.57558823 0.17076501 0.023419399
0.5413034 0.17206427 0.023406193
0.57196516 0.17240967 0.023541123
0.57366973 0.17318337 0.023501724
0.57607841 0.17319739 0.023433588
0.57415152 0.17484103 0.023507208
0.57597303 0.17568651 0.023465322
0.57796299 0.17595434 0.023411989
0.54409295 0.17910787 0.023408443
0.57569724 0.17805067 0.023500448
0.57815093 0.17814678 0.023431979
0.53908771 0.1801374 0.023562262
0.57643312 0.17978254 0.023499578
0.57852411 0.1797038 0.023439378
0.55257905 -0.24485299 0.028275808
0.55523312 -0.24501078 0.028198719
0.55811584 -0.24569747 0.027108589
0.56055045 -0.24578913 0.027038492
0.55049002 -0.24199758 0.028368026
0.5524804 -0.24288243 0.028301373
0.55527157 -0.24300541 0.02810964
0.55766732 -0.24324162 0.027149677
0.56030285 -0.24304025 0.02682714
0.56231153 -0.24299122 0.026020382
0.54775262 -0.23946489 0.028474912
0.54984784 -0.24025244 0.0284064
0.55248386 -0.24049108 0.028078778
0.55513149 -0.24063183 0.027251722
0.55773318 -0.24039178 0.026823405
0.56016666 -0.24053144 0.026359739
0.56287873 -0.24033111 0.02603502
0.54540396 -0.23735176 0.028565928
0.54740977 -0.23783225 0.028503487
0.54995149 -0.23794311 0.027891425
0.55258334 -0.23823872 0.027451674
0.55498654 -0.23792364 0.026786873
0.55760425 -0.2377988 0.026290802
0.56052756 -0.23779424 0.026130995
0.56297153 -0.23788629 0.026060628
0.56458533 -0.23835513 0.02600944
0.54535228 -0.23536938 0.028256794
0.54730916 -0.23544671 0.027624391
0.54996359 -0.2353179 0.027147001
0.55246794 -0.2353272 0.026888285
0.55491787 -0.23513468 0.026320795
0.55765516 -0.23531197 0.026241122
0.56046051 -0.23526184 0.026162142
0.56244564 -0.23562221 0.026101686
0.54290891 -0.232388 0.027693549
0.54483032 -0.23285118 0.027533662
0.5472762 -0.23271751 0.026878061
0.54999131 -0.23265174 0.02658922
0.55256677 -0.23259786 0.026416769
0.55501062 -0.23268992 0.026346395
0.55745465 -0.23278196 0.026276032
0.5594036 -0.23301856 0.026218032
0.53963017 -0.22955459 0.027819246
0.54218858 -0.22999007 0.027608274
0.54453528 -0.23011304 0.026946079
0.54725033 -0.23002352 0.02659726
0.5500558 -0.22997339 0.026518282
0.55265945 -0.23015305 0.026442369
0.55510354 -0.23024508 0.026372006
0.55744171 -0.23043518 0.026303496
0.53737533 -0.22686811 0.02791422
0.53944051 -0.22741166 0.027515884
0.54193127 -0.22750454 0.026959097
0.54460579 -0.22740144 0.026702533
0.54704976 -0.22749349 0.026632169
0.54963195 -0.22824362 0.026550287
0.55293274 -0.22832713 0.026455708
0.55530375 -0.22803751 0.026391817
0.55707651 -0.22841518 0.026337186
0.53482091 -0.22422452 0.028017199
0.53699535 -0.22481753 0.027531812
0.5395391 -0.22476234 0.026876695
0.54222369 -0.22567956 0.026789963
0.53220564 -0.22175485 0.028119884
0.53415591 -0.22192185 0.027729148
0.53664488 -0.22220504 0.026988307
0.5385251 -0.22281992 0.026927888
0.52987111 -0.21902472 0.028217614
0.53168833 -0.21952499 0.02779649
0.53447497 -0.21961775 0.026806872
0.53651792 -0.21980493 0.026185915
0.56697261 -0.21845061 0.026171654
0.52754438 -0.21609165 0.028317481
0.52936441 -0.21679896 0.028146526
0.53182119 -0.21720198 0.027282929
0.53439951 -0.21735482 0.026207585
0.536955 -0.21719287 0.026036944
0.56380683 -0.21588308 0.026291072
0.56558669 -0.21627653 0.026236057
0.56703448 -0.21682073 0.026188711
0.52195603 -0.21344224 0.028506547
0.52375883 -0.21411987 0.028447594
0.52671123 -0.21425365 0.02836233
0.52915651 -0.21464545 0.027732637
0.53148788 -0.21458501 0.027000235
0.53413081 -0.21464705 0.026146436
0.53649616 -0.21489999 0.026076445
0.5638687 -0.21425323 0.02630814
0.56549805 -0.21431457 0.026261231
0.56712729 -0.21437593 0.026214322
0.52169925 -0.21164401 0.028534597
0.52364081 -0.2118797 0.028476814
0.52636641 -0.21199243 0.028148102
0.52899045 -0.21204527 0.027222669
0.53160524 -0.2120603 0.026478807
0.533988 -0.21193831 0.026181772
0.53577155 -0.21241507 0.026125699
0.56577128 -0.21248865 0.026274562
0.56775296 -0.21222323 0.026221445
0.52153051 -0.20936128 0.028565744
0.52385193 -0.2093704 0.028399762
0.52649313 -0.2094284 0.027514709
0.52919853 -0.20941111 0.026561165
0.531587 -0.20939022 0.026279286
0.53341144 -0.20986854 0.02622202
0.51931036 -0.2060463 0.027666509
0.52187186 -0.20709777 0.02858221
0.52404857 -0.20671764 0.027909191
0.5265705 -0.20684296 0.027178572
0.52903789 -0.20642695 0.026385803
0.51905257 -0.20424119 0.027694667
0.52144086 -0.20385765 0.027742527
0.52384764 -0.20389441 0.027562689
0.52642983 -0.20387009 0.026614353
0.52872223 -0.20395742 0.026423275
0.51912475 -0.20172565 0.02772167
0.52112532 -0.20121807 0.027670804
0.52376765 -0.2013157 0.027230941
0.52636212 -0.20141092 0.026519617
0.52870929 -0.20160171 0.02645085
0.51958877 -0.19871189 0.027743319
0.52133596 -0.19869441 0.027593931
0.52388346 -0.1989429 0.026718458
0.52645528 -0.19895677 0.026545323
0.52841169 -0.19919428 0.026487088
0.51936185 -0.19609183 0.027780021
0.52147734 -0.19632286 0.027217126
0.52409512 -0.19641025 0.026641658
0.52620888 -0.19681755 0.026577014
0.51895976 -0.1937916 0.027817985
0.5216257 -0.1938704 0.027074508
0.52408224 -0.19405451 0.026669238
0.51875913 -0.19126154 0.027852895
0.52126706 -0.19139993 0.027065566
0.52316093 -0.19135739 0.02672651
0.51645046 -0.18825643 0.027953079
0.51866895 -0.18855761 0.027886687
0.52128893 -0.18835817 0.026814237
0.51640236 -0.18594235 0.027981162
0.51845443 -0.18561156 0.027926793
0.52081895 -0.18563706 0.026858995
0.51450497 -0.18219842 0.028078228
0.51620901 -0.18297669 0.0280209
0.51869339 -0.18315737 0.027748268
0.52091211 -0.18318294 0.026884696
0.51629406 -0.18073562 0.028044377
0.51874804 -0.18069863 0.027641727
0.52059644 -0.1807134 0.026922176
0.51710361 -0.1782158 0.028050521
0.51884097 -0.1782507 0.027667366
0.51719642 -0.175771 0.028076122
0.51895678 -0.17577279 0.027389534
0.51730466 -0.17291871 0.028105997
0.51884705 -0.17286497 0.027062431
0.52031219 -0.17264983 0.026823271
0.51738203 -0.17088139 0.028127342
0.51857388 -0.16991611 0.027354345
0.52110803 -0.16989949 0.026407275
0.51672202 -0.16677603 0.028193474
0.51850247 -0.16749512 0.027578864
0.52131373 -0.16754077 0.026386997
0.52307975 -0.16715002 0.02600795
0.51658797 -0.16493475 0.028218538
0.5185594 -0.16503212 0.027461182
0.52136856 -0.16505894 0.026280712
0.52349222 -0.16494526 0.026021713
0.51659489 -0.16296278 0.028241118
0.51892459 -0.16273011 0.027177274
0.52160943 -0.16257183 0.026102522
0.52366161 -0.16264911 0.02604343
0.51899248 -0.15968119 0.027782265
0.52176464 -0.16013187 0.02625135
0.52375513 -0.16018565 0.026069229
0.51927644 -0.15740235 0.027729064
0.52132881 -0.1576131 0.026667979
0.5236668 -0.15709858 0.026107393
0.51929802 -0.15479475 0.028258795
0.52145386 -0.15453081 0.027200261
0.52401859 -0.1547917 0.026124056
0.52563071 -0.1540888 0.026086465
0.51969194 -0.15301417 0.028268188
0.52155638 -0.15225115 0.027598847
0.52371407 -0.15211941 0.026963919
0.52652949 -0.15206684 0.026084328
0.52172172 -0.14969021 0.028249025
0.52416158 -0.14958107 0.027402967
0.52669889 -0.14977069 0.026106041
0.52818882 -0.14949788 0.026066935
0.52236795 -0.1469942 0.02826184
0.52415162 -0.14692307 0.027767429
0.52630991 -0.14685008 0.026776094
0.52867776 -0.14690539 0.026083022
0.52374989 -0.14428936 0.028087148
0.52629864 -0.1441365 0.02678274
0.5288074 -0.14422835 0.026110262
0.53055072 -0.1435838 0.02606827
0.52446985 -0.14176871 0.028262585
0.52641892 -0.14180464 0.026872953
0.52898681 -0.14146911 0.026137045
0.53084165 -0.14133337 0.02608601
0.52658069 -0.1393206 0.027897516
0.52914244 -0.13916121 0.026302209
0.53154302 -0.13909838 0.026091941
0.53347921 -0.13862307 0.02604253
0.52708912 -0.13724279 0.028240582
0.52921486 -0.13674967 0.026985448
0.53156239 -0.13650745 0.026343631
0.53409916 -0.13672765 0.026046833
0.53577209 -0.13596833 0.026008159
0.529333 -0.13393757 0.027214676
0.5315063 -0.1337942 0.026821209
0.53427863 -0.13396838 0.02607361
0.53620845 -0.1337527 0.026021374
0.52966768 -0.13181035 0.026896259
0.53186083 -0.13143668 0.026671641
0.53402913 -0.1313239 0.026539998
0.53678 -0.13107231 0.026036127
0.53400069 -0.12869044 0.027518082
0.53678858 -0.1285017 0.026923103
0.53848404 -0.12949182 0.026006073
0.53290164 -0.12739646 0.02818948
0.53462815 -0.12609935 0.028030436
0.53720409 -0.12632096 0.027329549
0.53969586 -0.12629953 0.027009025
0.54207212 -0.12554252 0.026950374
0.53507751 -0.12380596 0.028169245
0.53700519 -0.12344018 0.028018754
0.53947562 -0.12346154 0.0280485
0.54252589 -0.12347743 0.026961356
0.54427522 -0.1232361 0.026914537
0.53745073 -0.12115558 0.028132554
0.53963542 -0.12193737 0.028061569
0.54228705 -0.12108799 0.02756742
0.54497403 -0.12100959 0.026920447
0.54690278 -0.12053609 0.026871214
0.53809893 -0.11943121 0.028134078
0.54262596 -0.11837755 0.028017879
0.54489487 -0.11833009 0.027398281
0.54760605 -0.11835318 0.026876479
0.54991674 -0.11808272 0.026814079
0.55247355 -0.11760557 0.026747087
0.55473018 -0.11748575 0.026684478
0.5573957 -0.11738133 0.026610106
0.54481435 -0.11567415 0.027653562
0.54730135 -0.115431 0.026918873
0.55009794 -0.11546806 0.026839146
0.55255121 -0.11556044 0.026768506
0.55500448 -0.11565284 0.026697865
0.55745775 -0.11574522 0.026627233
0.56000876 -0.11565925 0.026555883
0.54075944 -0.1138187 0.028123468
0.54238874 -0.11388006 0.028076559
0.5485245 -0.11377037 0.026903361
0.55045325 -0.11329687 0.026854143
0.55264437 -0.11310632 0.026794204
0.55509758 -0.11319871 0.026723573
0.55755091 -0.11329111 0.026652941
0.56000423 -0.11338349 0.026582291
0.56277174 -0.11290257 0.026509374
0.56557846 -0.1121598 0.026438355
0.56824398 -0.11205537 0.026363969
0.5702883 -0.11213237 0.026305109
0.55065906 -0.11092713 0.027876139
0.55250549 -0.11038732 0.027385354
0.5551908 -0.11074457 0.026749274
0.55772978 -0.11054229 0.026679611
0.56011289 -0.11052033 0.026612282
0.56274211 -0.11029166 0.026540365
0.5655582 -0.11024132 0.026461089
0.56830603 -0.11041928 0.026381114
0.5707593 -0.11051168 0.026310483
0.57280374 -0.11058867 0.026251605
0.55527055 -0.10839396 0.027060011
0.55756646 -0.10807799 0.026855631
0.56038934 -0.10784712 0.027135551
0.56272542 -0.10782249 0.027319707
0.56564575 -0.10793593 0.026485229
0.56839919 -0.10796515 0.026406815
0.57085246 -0.10805754 0.02633618
0.56311083 -0.10527533 0.027588302
0.56555253 -0.1053273 0.026684746
0.56808352 -0.10549562 0.026444295
0.54503304 -0.2429065 0.030084452
0.54756778 -0.24333408 0.029435953
0.54964739 -0.24318191 0.029378733
0.54322815 -0.2401785 0.030595928
0.54463446 -0.24037328 0.030303661
0.54718858 -0.24057683 0.02947855
0.54925489 -0.24138077 0.029410675
0.53663951 -0.23738551 0.030815015
0.5425114 -0.23763297 0.029778576
0.54438394 -0.23796873 0.029588198
0.54614067 -0.23843984 0.029532939
0.53540397 -0.23466016 0.030881524
0.53698277 -0.23541127 0.03038343
0.53941453 -0.23501678 0.029854162
0.54175442 -0.23532136 0.028892959
0.54404157 -0.23516008 0.02862986
0.53514284 -0.23246901 0.030914234
0.53683776 -0.23259059 0.030239489
0.53930914 -0.23260128 0.029293859
0.54183006 -0.23286413 0.028719101
0.54352111 -0.23363645 0.028662235
0.53240836 -0.22892189 0.031032741
0.53438222 -0.22976159 0.030694222
0.53694957 -0.23000951 0.029474089
0.53937083 -0.23040658 0.02892839
0.54118788 -0.23111898 0.028757453
0.53009313 -0.22642376 0.031127244
0.53194684 -0.22717193 0.030765906
0.53421021 -0.22760458 0.029796308
0.53654307 -0.22788453 0.028926535
0.52940142 -0.22470345 0.031041689
0.53173172 -0.22493386 0.030020583
0.53412688 -0.22518396 0.02902624
0.53571308 -0.22605357 0.028971225
0.5274092 -0.22200263 0.030253962
0.52928156 -0.22234313 0.029896792
0.53151429 -0.22264609 0.029229697
0.53337985 -0.22353607 0.029066473
0.52691478 -0.21985188 0.030292843
0.52893895 -0.21984482 0.029401781
0.52519202 -0.21667524 0.030378371
0.52636772 -0.21695744 0.029841537
0.52821547 -0.21740253 0.029283753
0.52420765 -0.21481077 0.029594084
0.52588224 -0.21488507 0.02937899
0.52051789 -0.20851016 0.028604299
0.51978338 -0.20645002 0.028648913
0.5207901 -0.20669121 0.028617583
0.51986045 -0.20442046 0.028670171
0.52099043 -0.20462564 0.028635759
0.51645398 -0.20022228 0.029815704
0.51754904 -0.20108147 0.028774282
0.51674366 -0.19881497 0.029073417
0.51804733 -0.19866128 0.028788105
0.51620489 -0.19616044 0.029869705
0.51805246 -0.19638515 0.028814245
0.51627743 -0.1936281 0.029646777
0.51779562 -0.19458689 0.0288423
0.51661426 -0.19145305 0.028911997
0.5163728 -0.18924892 0.028944299
0.51484221 -0.18675232 0.029016539
0.51427722 -0.18022716 0.029107928
0.51344407 -0.17827095 0.030554801
0.51549661 -0.17807801 0.029098164
0.51385593 -0.17605057 0.030418687
0.5155251 -0.17544203 0.029628038
0.5139277 -0.17349297 0.031196564
0.51580417 -0.17300092 0.029481569
0.51559645 -0.17030764 0.0298997
0.51446354 -0.16734758 0.030251861
0.51581734 -0.16774368 0.029708663
0.51454031 -0.16532579 0.03027302
0.51557374 -0.16547045 0.029491715
0.51463246 -0.16289964 0.030298442
0.51575136 -0.16280349 0.029267371
0.51752853 -0.15880549 0.029263139
0.51646423 -0.15729955 0.030311167
0.51760554 -0.15677594 0.029284403
0.51638049 -0.15500136 0.029768407
0.51768261 -0.15474637 0.029305657
0.51646161 -0.15203528 0.030372046
0.51831806 -0.15212549 0.029460827
0.5167712 -0.14921241 0.030395865
0.51859885 -0.14955385 0.029639777
0.5206241 -0.14862429 0.02929295
0.51683259 -0.14759497 0.030412823
0.51876265 -0.14720729 0.029790865
0.52083117 -0.1467351 0.029308895
0.51938075 -0.14445145 0.030376852
0.52116448 -0.14441469 0.029826468
0.51944214 -0.14283402 0.030393809
0.52105898 -0.14289492 0.030347249
0.523045 -0.14194055 0.029301494
0.52399623 -0.1392476 0.029805847
0.52563369 -0.13797313 0.029273897
0.52453834 -0.136547 0.030321896
0.52619457 -0.13604309 0.029280294
0.52430093 -0.1342704 0.030354923
0.52659929 -0.13394457 0.029293051
0.5247072 -0.13209906 0.030368477
0.52670699 -0.13158523 0.02960309
0.53929639 -0.120602 0.029087096
0.54176182 -0.11988188 0.029025495
0.53781223 -0.11791962 0.0311611
0.53901851 -0.11765545 0.030129462
0.54122788 -0.11798646 0.029562764
0.53787339 -0.11630841 0.031177968
0.53956628 -0.11544621 0.030764747
0.54196876 -0.11598645 0.029207544
0.54197752 -0.1141991 0.02908501
0.54033506 -0.24189608 0.03165859
0.54193324 -0.24195625 0.031612575
0.53720647 -0.23970096 0.033273354
0.53932625 -0.24013536 0.032374512
0.54189026 -0.24045365 0.031631153
0.53722471 -0.23783098 0.032794219
0.53941703 -0.23774345 0.032399569
0.54153204 -0.23847222 0.031664204
0.53501445 -0.23449099 0.031895012
0.53759658 -0.23568414 0.032093849
0.53936613 -0.23571385 0.032007597
0.53270817 -0.23200256 0.031989157
0.53369159 -0.23256272 0.032455027
0.53824121 -0.23381197 0.031811357
0.52960277 -0.22948402 0.03210631
0.53198701 -0.23003824 0.032282408
0.53355277 -0.23083356 0.031978711
0.52773321 -0.22687934 0.033189863
0.52910727 -0.22732991 0.032327142
0.53098518 -0.22820188 0.032081921
0.52405339 -0.22449724 0.033035882
0.52676588 -0.22494087 0.032024834
0.52843279 -0.22517049 0.032189291
0.52203679 -0.22223926 0.033262067
0.52391464 -0.22243398 0.032599136
0.52618796 -0.22242472 0.031395361
0.52808589 -0.22286572 0.031225285
0.52137196 -0.21946307 0.033455908
0.5238083 -0.21959636 0.032009639
0.52571648 -0.22003073 0.031325214
0.5193702 -0.21619804 0.033550382
0.52111018 -0.21716931 0.03318968
0.52387035 -0.21739379 0.031808216
0.5194307 -0.21460551 0.033567056
0.5212853 -0.21457583 0.032969106
0.52349985 -0.21517855 0.031610858
0.51949114 -0.21301296 0.03358373
0.52076763 -0.21194376 0.033274047
0.52027363 -0.20998113 0.031595618
0.51886547 -0.20666493 0.032674342
0.51492918 -0.19852172 0.032379776
0.51484966 -0.19650713 0.032905534
0.51391143 -0.19366933 0.032464683
0.51400262 -0.19126652 0.032489851
0.51359093 -0.1884473 0.03270084
0.51381433 -0.18577123 0.032915968
0.50910932 -0.17907964 0.033269614
0.5115521 -0.17797086 0.033213153
0.51138693 -0.17529623 0.033248719
0.51277447 -0.17474036 0.032215297
0.51154202 -0.1729672 0.033271216
0.51326871 -0.17234491 0.032228976
0.5118404 -0.17037672 0.033292681
0.51334482 -0.17033869 0.032249987
0.51173925 -0.16777121 0.03332565
0.51320595 -0.16782482 0.032616451
0.51140445 -0.16499679 0.033367179
0.51285195 -0.16481113 0.033328265
0.51134479 -0.1623528 0.033399403
0.51373899 -0.16256307 0.031728327
0.51140547 -0.16075402 0.033416152
0.51275611 -0.16074044 0.032877773
0.51537526 -0.15660563 0.031350553
0.51540589 -0.15580003 0.031358987
0.5155741 -0.15136921 0.031405404
0.51565051 -0.14935519 0.031426489
0.51571167 -0.14774399 0.031443357
0.51797366 -0.14359418 0.032427609
0.51875299 -0.14137501 0.031930909
0.52054024 -0.14093395 0.031385094
0.51854229 -0.13919556 0.032462284
0.52089196 -0.13894738 0.032398529
0.51928645 -0.13652441 0.032972269
0.52131552 -0.13635543 0.0331668
0.52365619 -0.13674861 0.031345058
0.52142102 -0.13401264 0.033107501
0.5232417 -0.13350599 0.031394273
0.52357125 -0.13190487 0.031403422
0.53276628 -0.12337687 0.031241179
0.53282738 -0.12176567 0.031258047
0.53863323 -0.11785213 0.032139048
0.53908002 -0.11666348 0.032140106
0.53183323 -0.23775429 0.03494893
0.53442883 -0.23819254 0.034495078
0.53586197 -0.23836526 0.033827141
0.52749896 -0.23449823 0.03510946
0.52932185 -0.23509435 0.035050869
0.53178138 -0.2353992 0.034894228
0.53423798 -0.23523076 0.034687553
0.52710474 -0.2326729 0.035541885
0.5292235 -0.23282261 0.035079893
0.53165883 -0.23270372 0.034511965
0.53371102 -0.23306021 0.034806971
0.52437246 -0.22972548 0.035653412
0.52646524 -0.2300449 0.035425596
0.52920049 -0.23027653 0.034693088
0.53105044 -0.23020141 0.034057874
0.52363771 -0.22738956 0.035454955
0.52664483 -0.22729571 0.035139896
0.52929306 -0.22838774 0.034128666
0.5199911 -0.22393015 0.035444409
0.52123076 -0.22460978 0.035401404
0.52409989 -0.22495157 0.034770381
0.52586526 -0.22528744 0.035062063
0.51901805 -0.22178368 0.03549679
0.52073836 -0.22247481 0.035440028
0.51684517 -0.21936734 0.035252821
0.51875108 -0.2196206 0.034995753
0.52034426 -0.22059619 0.034805913
0.51653504 -0.21690273 0.035178922
0.51832062 -0.21675509 0.034574166
0.51437372 -0.21352856 0.034723371
0.51592946 -0.21438144 0.034669396
0.51808578 -0.21434918 0.03460861
0.51416969 -0.2119323 0.034747582
0.51604402 -0.21188171 0.034945138
0.5181762 -0.2119697 0.03463354
0.51371115 -0.20949794 0.035217483
0.51610732 -0.20931178 0.034995761
0.51850379 -0.20931546 0.0346549
0.52010459 -0.20897861 0.034613401
0.51180321 -0.20554674 0.033887982
0.51335716 -0.2066226 0.035365541
0.51596034 -0.20657843 0.035314459
0.51812744 -0.20668013 0.034696005
0.51141834 -0.20337237 0.034590989
0.5136103 -0.20407304 0.034997143
0.51585948 -0.20423852 0.03550316
0.5113427 -0.20134111 0.03495007
0.51339519 -0.20165673 0.034888227
0.51526362 -0.20177607 0.035434157
0.51105416 -0.19900694 0.034985218
0.51341295 -0.19890623 0.034919489
0.5148856 -0.20004481 0.034864575
0.51104456 -0.19627203 0.034874152
0.51298916 -0.19610338 0.034838825
0.51062113 -0.19326687 0.034841463
0.51291639 -0.19373663 0.034421593
0.51069653 -0.19115095 0.034285728
0.5123474 -0.19121383 0.034038097
0.51090539 -0.18852881 0.034210049
0.51240778 -0.18962128 0.034054786
0.51085865 -0.18584903 0.034475759
0.50946563 -0.1831312 0.034213167
0.51069897 -0.18320367 0.035052754
0.51261938 -0.18404737 0.034113139
0.50955629 -0.18074238 0.034238189
0.5104149 -0.18093233 0.034878623
0.50888121 -0.17752731 0.034294456
0.51012623 -0.17849745 0.034533799
0.50864887 -0.17540275 0.03449234
0.51008743 -0.17575009 0.034280788
0.5085215 -0.17276418 0.034859899
0.51006514 -0.17258808 0.034317933
0.5086121 -0.17038004 0.034884881
0.51034731 -0.17040582 0.034335151
0.50863379 -0.16777267 0.034985833
0.51038975 -0.16778734 0.034364175
0.50913012 -0.16527613 0.034628998
0.51014578 -0.16521508 0.034400821
0.50942534 -0.16319442 0.034444571
0.51266974 -0.16172178 0.034369588
0.51156646 -0.15928799 0.034428969
0.34676415 0.051810723 0.035537735
0.35159391 0.051502991 0.036397696
0.34478942 0.053517297 0.035613433
0.34682605 0.053440586 0.035554793
0.35287285 0.053080797 0.036379647
0.35491201 0.053274997 0.036324065
0.35726959 0.053829823 0.036263615
0.35981724 0.054038748 0.036193784
0.36281067 0.053682111 0.036104776
0.3728019 0.053549733 0.035819918
0.37537691 0.053588253 0.035747346
0.37851349 0.054147612 0.035664856
0.38854259 0.053123888 0.036369082
0.39111936 0.053290058 0.036297932
0.39410439 0.05301566 0.03621012
0.3965604 0.053733036 0.036148757
0.40708539 0.053741589 0.035850387
0.4138172 0.05335309 0.035655003
0.42334422 0.053389672 0.036385745
0.42485803 0.053433508 0.036343325
0.42761403 0.053574622 0.036266804
0.34203091 0.056069482 0.035721127
0.34447491 0.055977438 0.035650764
0.34691885 0.055885401 0.035580397
0.35335568 0.055095077 0.036389217
0.35494003 0.055959251 0.03635427
0.35745966 0.056159992 0.036285143
0.35989425 0.056068309 0.036215037
0.36273465 0.055961337 0.03613326
0.36557505 0.055854362 0.036051475
0.36800969 0.055762667 0.035981376
0.37047511 0.056482807 0.035919785
0.37296626 0.055738598 0.035840541
0.37573475 0.055878233 0.035763644
0.37848526 0.056079514 0.035687972
0.38901639 0.055474915 0.036382813
0.3912808 0.055738501 0.036321636
0.39398527 0.055970389 0.036247618
0.39665252 0.05615918 0.036174167
0.39907777 0.056067839 0.036104333
0.40150312 0.055976495 0.036034498
0.40433264 0.055869937 0.03595303
0.40716213 0.055763379 0.035871565
0.40958741 0.055672035 0.035801739
0.41209742 0.055872012 0.035732869
0.41362962 0.055519804 0.035685349
0.42504662 0.055745825 0.036364675
0.42746261 0.055654842 0.036295116
0.430374 0.055867895 0.036215018
0.43311512 0.055845335 0.03613703
0.342199 0.058348231 0.035742689
0.34445378 0.05835234 0.035678789
0.3467401 0.058340427 0.03561382
0.35534495 0.058562454 0.036372859
0.35755205 0.058595471 0.036310647
0.35998672 0.058503781 0.036240548
0.36242136 0.05841209 0.036170453
0.36526179 0.058305118 0.036088664
0.36818945 0.058357455 0.036006249
0.37055215 0.058512371 0.035941035
0.37291721 0.05853416 0.035874221
0.37543684 0.058734901 0.035805088
0.37737834 0.05849918 0.035747308
0.38940731 0.057241909 0.036392123
0.3909986 0.058639746 0.036363147
0.39391506 0.058691885 0.036281038
0.39674461 0.058585327 0.03619957
0.39916989 0.058493979 0.036129743
0.40159521 0.058402643 0.036059916
0.40402052 0.058311302 0.035990085
0.40694797 0.058325645 0.035907231
0.40969491 0.058502536 0.035831377
0.41204858 0.058656853 0.035766415
0.42560729 0.058375482 0.036379158
0.42756963 0.058474451 0.036324654
0.43006575 0.058563795 0.036254894
0.43293217 0.05874921 0.036175746
0.43563816 0.058573961 0.03609699
0.34262386 0.060943749 0.035760622
0.34401602 0.060774736 0.035719186
0.35581088 0.060896754 0.036386602
0.35764456 0.061030939 0.036336154
0.36007917 0.060939252 0.036266059
0.36251378 0.060847562 0.036195956
0.36526769 0.060931459 0.036118831
0.36790612 0.061269861 0.036047917
0.37066004 0.061353751 0.035970792
0.37309465 0.061262056 0.035900693
0.37552929 0.061170373 0.035830595
0.37715235 0.061109245 0.035783857
0.39158189 0.061209362 0.036376283
0.39376158 0.061046291 0.036312591
0.39654553 0.061096057 0.036234226
0.39926198 0.060920127 0.036155153
0.40168732 0.060828786 0.036085322
0.40412799 0.0611418 0.036019728
0.40678424 0.061041765 0.035943244
0.40964371 0.061420001 0.035866521
0.41182339 0.061256919 0.035802826
0.42603546 0.060549118 0.036392123
0.42767668 0.061294064 0.036354184
0.43009269 0.061203077 0.036284626
0.43291128 0.061096925 0.03620347
0.43572989 0.060990769 0.036122307
0.34230936 0.063403897 0.03579795
0.34436145 0.063734658 0.035743579
0.34682089 0.064050086 0.035677474
0.34845018 0.063988723 0.035630565
0.3560831 0.062715717 0.036399901
0.35773697 0.063466415 0.036361665
0.36025661 0.063667163 0.036292527
0.36262167 0.063688949 0.036225714
0.36498436 0.063843861 0.036160503
0.36791208 0.063896202 0.036078084
0.37075248 0.063789226 0.035996299
0.37318712 0.063697539 0.035926204
0.37562174 0.063605852 0.035856098
0.39207825 0.063620284 0.036390055
0.39369506 0.063559383 0.036343504
0.39652458 0.063452817 0.036262032
0.39936948 0.063750625 0.036184795
0.40179476 0.063659288 0.036114965
0.40413049 0.06387502 0.036051217
0.40691996 0.063601248 0.035968959
0.4094902 0.063774399 0.035898075
0.41191554 0.063683063 0.035828244
0.42799416 0.063587114 0.036371656
0.43018436 0.063619889 0.036309928
0.43275839 0.063442275 0.036234889
0.43562794 0.063616566 0.036155529
0.43744761 0.063749731 0.036105469
0.34241766 0.066256166 0.035827819
0.34446973 0.066586934 0.035773445
0.34691367 0.06649489 0.035703082
0.34909639 0.066684723 0.035643373
0.35830203 0.06611637 0.036376245
0.36020759 0.06646271 0.036326207
0.36272952 0.066530332 0.036255475
0.36516416 0.066438645 0.036185373
0.36775804 0.066259667 0.036109753
0.37055263 0.066309616 0.036031079
0.37327957 0.066133015 0.035951708
0.37560892 0.065943658 0.035883468
0.39397028 0.066068627 0.036364678
0.39634866 0.066200547 0.036298756
0.39907274 0.066596344 0.036226079
0.4019022 0.066489778 0.036144614
0.40351906 0.066428892 0.036098063
0.40754589 0.065872304 0.035977438
0.40946931 0.066131175 0.03592588
0.41183877 0.066231258 0.035859846
0.42845652 0.065903537 0.036385305
0.43027616 0.066036694 0.036335237
0.4327074 0.066348515 0.036269892
0.43544859 0.066325955 0.036191899
0.43755463 0.066569336 0.036134988
0.34252593 0.069108449 0.035857692
0.34456256 0.069031738 0.035799053
0.3470065 0.068939693 0.035728682
0.34945047 0.068847656 0.035658319
0.35109523 0.069193766 0.035615668
0.35874885 0.068712711 0.036393568
0.36038736 0.069057494 0.036351081
0.36282197 0.068965808 0.036280978
0.36525658 0.068874113 0.03621088
0.36769122 0.068782426 0.036140781
0.37053165 0.068675451 0.036058996
0.37345698 0.068860918 0.035978183
0.37516356 0.068663612 0.035927515
0.39437661 0.068716891 0.036383748
0.39633527 0.06912905 0.036332965
0.39905176 0.068953127 0.036253896
0.40183568 0.069002882 0.036175527
0.4092702 0.068641908 0.035960525
0.41127592 0.068161435 0.035898104
0.42872667 0.067708567 0.0363985
0.43045226 0.068743698 0.036361519
0.43281445 0.069168121 0.036299437
0.4352304 0.069077142 0.036229871
0.4372437 0.069001317 0.036171898
0.34261873 0.071553238 0.035883304
0.34465536 0.071476549 0.03582466
0.3470993 0.071384504 0.035754289
0.34954324 0.07129246 0.035683919
0.35114163 0.070416167 0.035628468
0.36057737 0.071387671 0.036372602
0.36291444 0.071401283 0.036306489
0.36534908 0.071309589 0.036236387
0.36778367 0.071217902 0.036166292
0.37023374 0.071532123 0.03610044
0.37296483 0.071603484 0.036023822
0.37566963 0.072004892 0.035951745
0.3947798 0.070807375 0.036396444
0.39642736 0.07155519 0.036358368
0.39885271 0.071463853 0.036288533
0.40143663 0.071285553 0.036213201
0.43096733 0.071496606 0.0363787
0.43290618 0.07158494 0.036324739
0.43532217 0.071493946 0.036255181
0.4375124 0.071526714 0.036193453
0.34271154 0.073998049 0.035908904
0.34474817 0.073921345 0.035850268
0.34719211 0.073829301 0.035779897
0.34924424 0.074160077 0.035725527
0.36109272 0.073366851 0.036380846
0.36284766 0.073924042 0.036337517
0.36545694 0.074150972 0.036266148
0.36789158 0.074059285 0.036196049
0.3703416 0.074373513 0.036130201
0.37306854 0.074196905 0.03605083
0.37586316 0.074246854 0.035972156
0.37835944 0.074173175 0.035900522
0.38011092 0.074818574 0.035858303
0.39674607 0.073857106 0.036375917
0.3989448 0.073890001 0.036313951
0.40145707 0.073957354 0.036243491
0.43137199 0.073659606 0.036392197
0.43299791 0.074001744 0.036350045
0.4354139 0.073910758 0.036280483
0.43759543 0.073713355 0.036216345
0.34259295 0.076246791 0.035938241
0.34466487 0.076686665 0.035884563
0.34730038 0.076681584 0.03580977
0.34975982 0.076997004 0.035743669
0.35182738 0.077735238 0.035693571
0.36298636 0.076589167 0.036364369
