# .PCD v0.7 - Point Cloud Data file format
VERSION 0.7
FIELDS x y z
SIZE 4 4 4
TYPE F F F
COUNT 1 1 1
WIDTH 526
HEIGHT 1
VIEWPOINT 0 0 0 1 0 0 0
POINTS 526
DATA ascii
0.4772706 -0.25078997 0.045677211
0.47957468 -0.25087675 0.045610905
0.48226267 -0.25097808 0.04553356
0.47198203 -0.24828248 0.045856014
0.47440088 -0.24846242 0.04578539
0.47698876 -0.24808651 0.04571639
0.47967678 -0.24818781 0.045639046
0.4823648 -0.24828912 0.045561701
0.45407778 -0.24583812 0.046391629
0.45631078 -0.24576837 0.046329156
0.45899889 -0.2458697 0.046251804
0.46138337 -0.2456798 0.046186421
0.46400553 -0.24567373 0.04611218
0.46669361 -0.24577503 0.046034828
0.46930307 -0.24560706 0.045962814
0.47208419 -0.24559352 0.045884147
0.47438827 -0.24568039 0.045817859
0.47707629 -0.24578166 0.045740504
0.47976431 -0.24588296 0.045663159
0.48219773 -0.2456788 0.045596559
0.48485076 -0.24561308 0.045522127
0.45444918 -0.24415947 0.046400473
0.45649379 -0.24328962 0.046352573
0.45898625 -0.24308762 0.046284262
0.461337 -0.2430342 0.046218265
0.46410772 -0.24298476 0.046140313
0.46679577 -0.24308607 0.046062961
0.46909979 -0.24317291 0.045996673
0.47178778 -0.24327421 0.045919314
0.4744904 -0.24299139 0.045845997
0.47717845 -0.24309269 0.045768641
0.4798665 -0.243194 0.045691296
0.4821851 -0.24289672 0.045629017
0.48487318 -0.24299802 0.045551673
0.48756117 -0.24309932 0.045474332
0.45686996 -0.24117321 0.046366334
0.45892125 -0.24055108 0.046315383
0.4615072 -0.24057862 0.046241783
0.46419525 -0.24067992 0.046164427
0.46689788 -0.2403971 0.046091106
0.46920189 -0.24048394 0.046024811
0.47188997 -0.24058524 0.045947455
0.47459257 -0.24030243 0.04587413
0.47689661 -0.24038927 0.045807831
0.47958469 -0.24049057 0.045730483
0.48227268 -0.24059187 0.045653135
0.48505384 -0.24057834 0.045574471
0.48766336 -0.24041037 0.045502465
0.45945603 -0.2378854 0.046330985
0.46160933 -0.23788963 0.046269912
0.46391341 -0.23797648 0.046203617
0.46652296 -0.2378085 0.046131596
0.46930408 -0.23779495 0.04605294
0.47199214 -0.23789628 0.045975596
0.4746801 -0.23799759 0.045898251
0.47698417 -0.23808442 0.045831945
0.4796868 -0.23780158 0.04575862
0.48237488 -0.23790292 0.045681272
0.48467889 -0.23798972 0.045614973
0.48738155 -0.23770691 0.045541648
0.49006954 -0.23780823 0.0454643
0.45970887 -0.23527905 0.046353899
0.46156082 -0.23511806 0.046303272
0.46401554 -0.2352875 0.046231754
0.46670356 -0.23538882 0.046154406
0.46939161 -0.23549014 0.046077058
0.47171029 -0.23519279 0.046014775
0.47439831 -0.23529413 0.045937434
0.47708631 -0.23539543 0.045860082
0.47978902 -0.23511262 0.045786757
0.48247698 -0.23521394 0.045709416
0.484781 -0.23530078 0.04564311
0.48746908 -0.23540206 0.045565769
0.49015707 -0.23550341 0.04548841
0.49269101 -0.23532411 0.04541868
0.45908186 -0.2335628 0.04639148
0.46156287 -0.23304081 0.046327189
0.46411774 -0.23259853 0.046259884
0.46672601 -0.23277378 0.046183944
0.46937898 -0.23270805 0.04610952
0.4718124 -0.23250386 0.046042912
0.47450045 -0.23260517 0.045965567
0.47718847 -0.23270649 0.045888219
0.4796432 -0.23287591 0.045816705
0.48228791 -0.23282875 0.045742288
0.48491746 -0.23280677 0.045868121
0.48757127 -0.2327131 0.045593906
0.49025932 -0.23281443 0.045516551
0.49257788 -0.23251714 0.045454271
0.4948819 -0.23260397 0.045387976
0.47189999 -0.23019902 0.046067033
0.47468108 -0.23018548 0.045988373
0.47729066 -0.2300175 0.045916352
0.47952089 -0.23020649 0.04585097
0.48235676 -0.23027876 0.046539363
0.48479721 -0.2300819 0.046339545
0.48744005 -0.23009229 0.045627862
0.49008477 -0.2300451 0.045553457
0.49266544 -0.23021229 0.045478389
0.49544665 -0.23019873 0.045399733
0.47200215 -0.22751005 0.046095166
0.4743062 -0.22759689 0.046028879
0.47700879 -0.22731407 0.045955542
0.4789288 -0.22738643 0.045900296
0.48305994 -0.22752841 0.046782054
0.48505422 -0.2275984 0.04583542
0.48737696 -0.22770484 0.045657203
0.49007958 -0.22742201 0.045583878
0.49276766 -0.22752333 0.045506526
0.49518868 -0.22764415 0.04543652
0.49788162 -0.22726145 0.045364618
0.47440836 -0.2249079 0.046057004
0.47709632 -0.2250092 0.045979664
0.47901639 -0.22508161 0.045924414
0.48344433 -0.22547399 0.046794869
0.48495981 -0.224811 0.045759108
0.48747909 -0.22501588 0.045685336
0.49018177 -0.22473304 0.045612007
0.49286973 -0.22483437 0.045534667
0.49517381 -0.2249212 0.045468364
0.49786183 -0.22502251 0.045391023
0.47451043 -0.22221895 0.046085145
0.47719851 -0.22232024 0.046007797
0.47972721 -0.22211637 0.045938484
0.48221973 -0.22174013 0.045872193
0.4848932 -0.22222559 0.045790821
0.48758125 -0.22232689 0.045713477
0.49003601 -0.22249635 0.045641959
0.49277267 -0.22233021 0.04556632
0.49527594 -0.22223222 0.045496505
0.49796399 -0.22233355 0.04541916
0.47461259 -0.21952997 0.046113279
0.47691664 -0.2196168 0.04604698
0.47960469 -0.2197181 0.045969639
0.48229277 -0.21981944 0.045892287
0.48507386 -0.21980588 0.045813635
0.48768342 -0.21963792 0.045741607
0.4899874 -0.21972476 0.045675319
0.4926016 -0.21974635 0.045600984
0.49537808 -0.21954326 0.045524638
0.49783283 -0.2197127 0.045453116
0.50047755 -0.21966551 0.045378711
0.47470018 -0.21722513 0.0461374
0.47708684 -0.21716122 0.046070497
0.47970685 -0.21702917 0.045997776
0.4823949 -0.21713048 0.04592042
0.48469892 -0.21721731 0.045854133
0.48740152 -0.2169345 0.045780797
0.49008963 -0.21703579 0.045703456
0.49277762 -0.2171371 0.045626104
0.49546564 -0.21723841 0.045548752
0.49785239 -0.21717449 0.045481853
0.47441831 -0.21452171 0.04617659
0.47704059 -0.21451563 0.046102345
0.47980896 -0.2143402 0.046025913
0.48249707 -0.21444151 0.045948561
0.48480108 -0.21452834 0.045882266
0.48748913 -0.21462964 0.045804918
0.4902598 -0.21458021 0.045726974
0.49261051 -0.21452674 0.045660969
0.49526355 -0.21446103 0.045586538
0.49780604 -0.21452889 0.045513701
0.47490087 -0.21194324 0.046192665
0.4772085 -0.21193403 0.046127371
0.47951263 -0.21202086 0.046061084
0.48231867 -0.21190682 0.045982867
0.48490325 -0.21183933 0.045910403
0.48759127 -0.21194066 0.045833055
0.49021348 -0.21193457 0.045758817
0.49259794 -0.21174468 0.045693424
0.49528599 -0.21184599 0.045616079
0.49797404 -0.21194731 0.045538731
0.4757455 -0.20995545 0.04619167
0.47729608 -0.20962921 0.046151496
0.47968054 -0.20943929 0.046086106
0.48219934 -0.20926444 0.046016749
0.48500544 -0.20915039 0.04593854
0.48730946 -0.20923723 0.045872238
0.48999748 -0.20933853 0.045794893
0.49268547 -0.20943986 0.045717545
0.49549159 -0.20932579 0.045639336
0.4826324 -0.20682974 0.046032567
0.48509297 -0.20684557 0.04596265
0.48747969 -0.20678163 0.045895755
0.49009964 -0.20664957 0.04582303
0.49278769 -0.20675087 0.045745689
0.48286188 -0.20483802 0.046049051
0.4848111 -0.20414214 0.046001844
0.48743331 -0.20413604 0.045927595
0.49020174 -0.2039606 0.045851171
0.49279019 -0.20415431 0.045775577
0.48529732 -0.20146762 0.046018928
0.48760128 -0.20155443 0.045952626
0.4898057 -0.20173371 0.045888089
0.48539066 -0.19900914 0.046044655
0.45296091 -0.24555054 0.047427069
0.45102549 -0.24291302 0.048262704
0.45357394 -0.24302582 0.047438838
0.45522475 -0.24241756 0.047399074
0.45133188 -0.24068175 0.048529904
0.45382699 -0.24063417 0.047659356
0.45590368 -0.2402295 0.047405083
0.45763573 -0.23944338 0.047365069
0.45199832 -0.2387566 0.048533227
0.45374867 -0.23784789 0.048403155
0.45615831 -0.23783177 0.04753669
0.45788512 -0.23792025 0.047375575
0.45436221 -0.23543696 0.048504539
0.45631725 -0.235228 0.047723934
0.45817807 -0.23524939 0.047398098
0.4547596 -0.23300987 0.048521295
0.45600119 -0.23313467 0.048084475
0.45786831 -0.23332204 0.047429115
0.48062184 -0.22919892 0.046831869
0.48140126 -0.22884516 0.046813868
0.47992966 -0.22725715 0.046873897
0.48162746 -0.2272117 0.046826303
0.4800168 -0.22496168 0.046897918
0.48192909 -0.22503373 0.046842892
0.48021212 -0.22318108 0.046912927
0.48200178 -0.22312082 0.046862911
0.4748033 -0.21097244 0.047207102
0.46966875 -0.20905574 0.049375661
0.47197032 -0.20903222 0.049143966
0.47428784 -0.20919761 0.047798015
0.47797918 -0.20802709 0.047151089
0.47874409 -0.20805591 0.04712908
0.47219801 -0.20676239 0.049330454
0.47463885 -0.20679525 0.048046052
0.47717983 -0.20673583 0.0472796
0.47956711 -0.20655441 0.047123089
0.48111147 -0.20622949 0.047083072
0.47224903 -0.2044661 0.049355507
0.47438198 -0.20405859 0.048914969
0.47726646 -0.20412058 0.047883358
0.47965431 -0.2042589 0.047147103
0.48188019 -0.2039171 0.047087967
0.47258365 -0.2023253 0.049370721
0.47452042 -0.20164387 0.049240332
0.47738549 -0.2015329 0.048243333
0.47970665 -0.20155887 0.047510277
0.48224923 -0.20148323 0.047105599
0.48362419 -0.20057723 0.04707709
0.47486937 -0.19907901 0.049343407
0.47725582 -0.19887425 0.048877966
0.47972399 -0.19885206 0.048096836
0.48215252 -0.19898923 0.047137123
0.4836823 -0.19904689 0.047093105
0.47471103 -0.19632523 0.049379688
0.45014215 -0.23973447 0.049575001
0.44833714 -0.23784959 0.050548334
0.45080593 -0.23781718 0.04957832
0.44605604 -0.23548892 0.051740736
0.44849238 -0.23531945 0.05111783
0.4512839 -0.23541857 0.050021224
0.45330349 -0.23485008 0.049541771
0.44704473 -0.23326477 0.051738381
0.44864523 -0.23269242 0.051608682
0.45092896 -0.23267956 0.050884709
0.45328298 -0.23273522 0.049691819
0.44941649 -0.23033896 0.051704928
0.45093572 -0.23001933 0.051665563
0.452997 -0.23062885 0.050099414
0.45134398 -0.22777328 0.051679917
0.46479821 -0.20893277 0.051516052
0.46727049 -0.20806699 0.050955743
0.46920928 -0.20818615 0.050399184
0.47072041 -0.20824313 0.050355703
0.46536657 -0.20719533 0.051519994
0.46669224 -0.20656003 0.051489756
0.46926668 -0.20667452 0.050415006
0.47077784 -0.20673145 0.050371528
0.46670964 -0.20429927 0.051515352
0.46943197 -0.2041347 0.050439633
0.47113976 -0.20384358 0.050394595
0.46715042 -0.20171183 0.051532723
0.46932164 -0.20149069 0.051073551
0.47164357 -0.20137104 0.050408848
0.46763182 -0.19913962 0.051548768
0.46945605 -0.19906406 0.051386774
0.4718349 -0.19882365 0.050432831
0.47336042 -0.19850267 0.050393298
0.4679957 -0.19749497 0.051557437
0.46924537 -0.19633597 0.05153539
0.47193542 -0.19617824 0.050460503
0.47344658 -0.19623518 0.050417025
0.44569516 -0.23256382 0.052785181
0.44609106 -0.23024315 0.053031623
0.44836918 -0.22983076 0.052740946
0.44394073 -0.22838759 0.053883567
0.44589689 -0.22771375 0.05383591
0.44846383 -0.22737266 0.053039491
0.45050666 -0.22706495 0.052712291
0.44654638 -0.22537091 0.053844541
0.44851881 -0.22496952 0.053716309
0.45100716 -0.22478086 0.053179216
0.44910571 -0.22263728 0.053803567
0.45115152 -0.22218038 0.053750858
0.45294815 -0.22209859 0.053700887
0.45140553 -0.21986419 0.053770382
0.45360538 -0.21962765 0.053710766
0.45206788 -0.21772949 0.053776249
0.45367846 -0.21713606 0.05373745
0.45422643 -0.21500745 0.053746495
0.45629984 -0.21452489 0.053693298
0.45662016 -0.21199521 0.053713419
0.45913321 -0.21193191 0.053042643
0.45708716 -0.21019374 0.05372097
0.45874828 -0.20923126 0.053613536
0.46144083 -0.20921032 0.052608471
0.46347067 -0.20939407 0.052548818
0.45905742 -0.20685408 0.053703677
0.46159106 -0.20667504 0.052815374
0.46378851 -0.2066714 0.052571233
0.45972911 -0.20434833 0.053713553
0.46149769 -0.20404616 0.053466834
0.46388823 -0.20404774 0.052598689
0.46541542 -0.20335461 0.052563399
0.46015427 -0.20158763 0.053733364
0.46164677 -0.20164391 0.053690419
0.46397367 -0.20141311 0.05279341
0.46564502 -0.20126133 0.052581061
0.46137288 -0.19901709 0.053728499
0.46405903 -0.19878107 0.052988112
0.46612558 -0.19877002 0.052596182
0.46418726 -0.19617678 0.052681044
0.46643531 -0.19626151 0.052616362
0.44500184 -0.22626084 0.054878518
0.44559315 -0.22468786 0.054879911
0.44590029 -0.2222002 0.054899916
0.44786161 -0.22199492 0.054846704
0.44599798 -0.21958247 0.055038519
0.44860014 -0.21969633 0.054852296
0.45048621 -0.21902296 0.05480662
0.44852605 -0.21713784 0.055312697
0.45093775 -0.21693069 0.054817971
0.45282859 -0.21613342 0.054773584
0.45101944 -0.21454601 0.055093288
0.45339462 -0.2142936 0.054778773
0.45110071 -0.21188998 0.05562187
0.45366332 -0.21196884 0.054797985
0.45524156 -0.21138538 0.054759994
0.45389715 -0.20930466 0.055022199
0.45592648 -0.20902893 0.054767776
0.45616829 -0.20658134 0.054789171
0.45766866 -0.20626566 0.054750293
0.45632112 -0.20406879 0.054995742
0.45825353 -0.20393023 0.054760668
0.4585954 -0.20146158 0.05477947
0.4824203 -0.25110418 0.045855951
0.48485306 -0.25091025 0.045789149
0.48745295 -0.25082248 0.04571639
0.48052084 -0.2494628 0.045928739
0.48268688 -0.24867214 0.045876365
0.48480558 -0.2482111 0.045821551
0.48739427 -0.24822998 0.045747869
0.48519868 -0.24582615 0.045837831
0.48732969 -0.24579419 0.045777731
0.49007213 -0.24589735 0.045698717
0.48583686 -0.24377567 0.045843311
0.48750094 -0.24316031 0.045803174
0.49017617 -0.24315396 0.045727331
0.49306792 -0.24301067 0.045374058
0.48811799 -0.24052542 0.045815974
0.4898884 -0.24039578 0.045767225
0.49263087 -0.24049895 0.045688216
0.4900718 -0.23814595 0.045787904
0.49281499 -0.23803027 0.045711394
0.49547735 -0.23785871 0.04563782
0.49075544 -0.2361666 0.04612476
0.49253184 -0.2354667 0.04582588
0.49529913 -0.23503332 0.045675386
0.49803367 -0.23530836 0.045494575
0.49281159 -0.23274936 0.046681751
0.49532399 -0.23273344 0.045784507
0.49802119 -0.23285222 0.045623235
0.50061566 -0.2329198 0.045382082
0.49363598 -0.23028751 0.046777628
0.49568275 -0.23029226 0.046302643
0.4980081 -0.23001382 0.045656256
0.50040871 -0.23008767 0.04558729
0.49539131 -0.22757243 0.046759058
0.49783751 -0.22735067 0.045691732
0.50057995 -0.22745381 0.045612726
0.49594095 -0.22485669 0.046774704
0.49792662 -0.22499914 0.04571626
0.50066906 -0.22510232 0.04563725
0.50310177 -0.2249084 0.045570448
0.49631155 -0.22293465 0.046786293
0.4978765 -0.2223943 0.04589057
0.50055355 -0.22223851 0.045673482
0.50305432 -0.22220924 0.045602847
0.49820253 -0.2196357 0.046659425
0.50057203 -0.21957825 0.045870293
0.50322783 -0.21970391 0.045626752
0.50557852 -0.21979235 0.045559026
0.49882188 -0.21719138 0.046781134
0.50070095 -0.2171057 0.046728801
0.50321662 -0.21717109 0.046041004
0.50568253 -0.21704893 0.04558764
0.48216802 -0.21448745 0.046284363
0.48383203 -0.21387213 0.046244226
0.49919921 -0.21548554 0.046790048
0.50073451 -0.21450084 0.046757814
0.50336057 -0.21441831 0.046484157
0.5057866 -0.21430553 0.04561625
0.48233923 -0.21185359 0.04630981
0.4839063 -0.21191256 0.04626466
0.50112265 -0.2118721 0.046777043
0.50347221 -0.21177901 0.046377957
0.50176257 -0.2097182 0.046783663
0.50313145 -0.20945662 0.046080858
0.50135273 -0.20707418 0.045825254
0.50309372 -0.20683576 0.045960497
0.49064651 -0.20384565 0.046166204
0.49274895 -0.20338646 0.046111822
0.49443439 -0.20328166 0.046065204
0.49010292 -0.20162731 0.046207149
0.49278784 -0.20117886 0.046136118
0.49449381 -0.20171399 0.04608155
0.48029405 -0.24823694 0.046949729
0.48181674 -0.24792935 0.046910059
0.48046979 -0.24566348 0.046974346
0.48242092 -0.2457369 0.046918135
0.48431474 -0.24526086 0.046869874
0.48057339 -0.24293096 0.047002841
0.48252451 -0.24300435 0.04694663
0.48486581 -0.24309243 0.046879184
0.48645639 -0.24237043 0.046842352
0.48027197 -0.24057412 0.04703851
0.48222315 -0.24064754 0.0469823
0.48503867 -0.24059708 0.046902984
0.48716062 -0.24028596 0.046846353
0.48037559 -0.23784161 0.047067009
0.48232672 -0.23791499 0.047010794
0.48499137 -0.23790862 0.04693526
0.48741442 -0.23771545 0.046868723
0.48917785 -0.23758635 0.046820164
0.48047921 -0.23510909 0.047095504
0.48219323 -0.23525174 0.04704522
0.48488081 -0.23520356 0.046969511
0.48750326 -0.23537329 0.046893146
0.48975074 -0.2353601 0.046829522
0.48212889 -0.23282562 0.047074959
0.4849551 -0.23281163 0.046994928
0.48760688 -0.23264079 0.046921641
0.48994824 -0.23272884 0.046854187
0.49152389 -0.2323972 0.046813291
0.48223254 -0.23009308 0.047103453
0.484889 -0.23011483 0.047027823
0.48771042 -0.22990823 0.046950139
0.49005181 -0.22999631 0.046882682
0.49217439 -0.22996448 0.04682282
0.4823361 -0.22736056 0.047131952
0.48467743 -0.22744864 0.047064498
0.487409 -0.2275514 0.046985805
0.49014059 -0.22765414 0.046907108
0.49256587 -0.22758901 0.046839036
0.49408728 -0.22662985 0.046806902
0.48242494 -0.2250184 0.047156375
0.48476633 -0.22510645 0.047088929
0.48751262 -0.22481887 0.047014304
0.49024424 -0.22492163 0.046935607
0.49251863 -0.22490057 0.046871308
0.49447936 -0.22453365 0.046819888
0.48241183 -0.22219127 0.047189277
0.48486993 -0.22237396 0.047117416
0.48750716 -0.22215332 0.047045123
0.49019471 -0.22210515 0.046969414
0.49268919 -0.22227716 0.046896651
0.49493665 -0.22226401 0.046833023
0.4822419 -0.21953867 0.047224611
0.48497349 -0.21964143 0.047145914
0.48731482 -0.2197295 0.047078464
0.49004641 -0.21983226 0.046999764
0.49286193 -0.21978179 0.046920456
0.49513415 -0.21963273 0.046857696
0.49686003 -0.21946308 0.046810672
0.48233071 -0.21719651 0.047249034
0.48506227 -0.21729925 0.047170337
0.48748538 -0.2171061 0.047103807
0.49015003 -0.21709974 0.047028266
0.49281466 -0.21709336 0.046952724
0.49523777 -0.21690018 0.046886187
0.49736032 -0.21686836 0.046826329
0.48356062 -0.21567911 0.0472316
0.4853161 -0.21472876 0.047192715
0.48743811 -0.21441765 0.047136076
0.49001652 -0.21443646 0.047062691
0.49270409 -0.21438831 0.046986982
0.49532658 -0.21455804 0.046910618
0.49766791 -0.2146461 0.046843164
0.4992584 -0.2139241 0.046806335
0.48565975 -0.21184887 0.047216088
0.48761094 -0.21192227 0.047159884
0.48995224 -0.21201035 0.04709243
0.49268377 -0.21211308 0.04701373
0.49543014 -0.2118255 0.046939116
0.4977715 -0.21191357 0.046871651
0.49967322 -0.21181759 0.0468188
0.48223653 -0.20937461 0.047341689
0.4849681 -0.20947737 0.047263
0.48778141 -0.20929886 0.047185227
0.4900558 -0.20927782 0.047120918
0.49270642 -0.2094557 0.04704367
0.4953807 -0.20900902 0.046972923
0.49787515 -0.20918106 0.046900153
0.50021648 -0.20926914 0.046832699
0.48479816 -0.20682475 0.047298338
0.48739332 -0.20656155 0.047227733
0.49015945 -0.20654531 0.047149424
0.49250078 -0.20663337 0.047081962
0.49523234 -0.20673615 0.047003269
0.49796391 -0.20683891 0.046924576
0.50030529 -0.20692694 0.04685713
0.48478508 -0.20399764 0.047331233
0.48751673 -0.20410039 0.047252547
0.48997822 -0.20445359 0.047178626
0.49276251 -0.20488411 0.047094665
0.49558628 -0.20427364 0.047021557
0.49806753 -0.20410638 0.046953078
0.50033396 -0.20429821 0.046886552
0.4875429 -0.20169073 0.047279518
0.48882055 -0.20063117 0.047255449
0.49582243 -0.20148094 0.047046989
0.4977513 -0.20213987 0.046984665
