# .PCD v0.7 - Point Cloud Data file format
VERSION 0.7
FIELDS x y z
SIZE 4 4 4
TYPE F F F
COUNT 1 1 1
WIDTH 1377
HEIGHT 1
VIEWPOINT 0 0 0 1 0 0 0
POINTS 1377
DATA ascii
0.68632567 -0.19679023 0.036714435
0.685269 -0.1985928 0.036503606
0.68410468 -0.20045877 0.036168881
0.68295622 -0.2027306 0.035829142
0.68179065 -0.20502324 0.035822891
0.68080533 -0.20674902 0.035820104
0.64897609 -0.250083 0.035875212
0.64730513 -0.25162187 0.036053479
0.64563811 -0.25330609 0.03653302
0.64427811 -0.25527298 0.036997762
0.64273876 -0.25715464 0.037364557
0.64109224 -0.25895083 0.037511192
0.63989013 -0.26092523 0.037727505
0.68739998 -0.19094461 0.036889076
0.68598109 -0.19315365 0.036554914
0.68479139 -0.1953997 0.036007755
0.68395269 -0.19745772 0.035873473
0.68332791 -0.19881259 0.035868607
0.6440537 -0.25274238 0.035931256
0.64263302 -0.25409687 0.035940517
0.64075702 -0.25586593 0.036077961
0.63909066 -0.25762841 0.036517508
0.63752013 -0.25965509 0.037066057
0.63615727 -0.26165554 0.037466846
0.6872077 -0.18756787 0.037154444
0.68566811 -0.18953232 0.03631122
0.6847688 -0.19198883 0.035923239
0.63753289 -0.25722399 0.03599418
0.63563162 -0.25865915 0.03615389
0.63387209 -0.26033071 0.036578301
0.63269031 -0.26251507 0.037129253
0.68959546 -0.17998987 0.037979119
0.68815267 -0.18180813 0.037872203
0.68664885 -0.18400477 0.036983937
0.68566245 -0.18600321 0.036352817
0.63230401 -0.25993162 0.036055088
0.6310361 -0.2614179 0.036393516
0.62925011 -0.26289099 0.036717393
0.62761211 -0.26493651 0.037579812
0.68974918 -0.17435116 0.038042635
0.68862647 -0.17633696 0.038039207
0.68762136 -0.17817713 0.037813153
0.68627137 -0.18026923 0.036761701
0.68550348 -0.18222056 0.036275025
0.62733352 -0.26228449 0.036115542
0.62579131 -0.26343268 0.036429428
0.62437242 -0.26535788 0.03729884
0.62241989 -0.26747099 0.038042165
0.68824708 -0.17319627 0.037416004
0.68654138 -0.17515722 0.03692311
0.68573445 -0.17725268 0.036579382
0.68515009 -0.17842059 0.036075898
0.62365496 -0.26286328 0.036173947
0.6222111 -0.26429003 0.036432832
0.62072617 -0.26590472 0.037023656
0.61915177 -0.26776871 0.037696496
0.68793023 -0.16965443 0.036796376
0.68646824 -0.17182 0.036574632
0.68519688 -0.1733869 0.036134206
0.61862856 -0.26492491 0.036405578
0.6173014 -0.2666398 0.036909059
0.61603069 -0.26871094 0.037490685
0.68761146 -0.16609579 0.036177054
0.68606114 -0.16822457 0.036179528
0.6853283 -0.17022477 0.036169037
0.61532843 -0.26584888 0.036286466
0.61378932 -0.26721498 0.036922865
0.61208987 -0.26902387 0.037206769
0.6869486 -0.16238362 0.036454689
0.68548316 -0.16454577 0.036232993
0.68475032 -0.16654596 0.036222506
0.61223084 -0.26612684 0.036338139
0.6104973 -0.26752549 0.036552444
0.60853207 -0.26958156 0.037090499
0.68478715 -0.16096503 0.036662489
0.68417233 -0.16286716 0.036275975
0.60855228 -0.26670566 0.036396548
0.60671455 -0.26812837 0.036776073
0.60532546 -0.27022147 0.037412662
0.68445754 -0.15748227 0.037061594
0.68335009 -0.15928762 0.036475457
0.60476863 -0.26798522 0.037115384
0.60339433 -0.26854903 0.03713318
0.60198653 -0.27087432 0.0377976
0.68361527 -0.15431008 0.036586396
0.68281502 -0.15612227 0.036629319
0.60123891 -0.26756936 0.036658946
0.59995967 -0.26905036 0.037248753
0.59830815 -0.27131468 0.038107708
0.59780174 -0.26794314 0.03685838
0.59635067 -0.26993984 0.03775695
0.59575903 -0.26725265 0.036616925
0.59438866 -0.26842451 0.037183106
0.59281909 -0.27031118 0.03763333
0.59228021 -0.26705271 0.03690321
0.59069836 -0.26876667 0.037689067
0.58915353 -0.27088791 0.037691519
0.59011602 -0.26589665 0.036732867
0.58857757 -0.26722217 0.037744805
0.58703279 -0.26934341 0.037747286
0.58782381 -0.26473147 0.036787212
0.58647466 -0.26602417 0.037129328
0.58519053 -0.26791993 0.037653752
0.58372068 -0.2701776 0.037796188
0.58448392 -0.26546642 0.036837794
0.58325106 -0.26680991 0.037177257
0.58187586 -0.26851273 0.03759839
0.58138633 -0.26574439 0.036889438
0.57963687 -0.26702428 0.037290122
0.57824916 -0.26927552 0.037803762
0.67492545 -0.13133688 0.036810357
0.57761139 -0.26571012 0.036956757
0.57628781 -0.26776171 0.037683539
0.67311931 -0.13040936 0.036853254
0.57593411 -0.26503155 0.03699448
0.57451516 -0.26633322 0.037104338
0.67173296 -0.12901191 0.036894266
0.57241762 -0.26464245 0.037061349
0.5708673 -0.26677126 0.037063815
0.57031345 -0.26324573 0.037115082
0.56874353 -0.26516366 0.037231524
0.56799287 -0.26207152 0.037170045
0.56677508 -0.26351821 0.037424676
0.56622541 -0.26121873 0.0372114
0.56457746 -0.26224428 0.037328556
0.56359458 -0.26417908 0.038023416
0.56270885 -0.2608296 0.037278272
0.5613907 -0.26298445 0.037776418
0.5616141 -0.25786039 0.037332579
0.56093532 -0.25953797 0.037324905
0.559385 -0.26166674 0.037327372
0.56054997 -0.25708541 0.037360579
0.55880702 -0.25798795 0.037380844
0.55725676 -0.26011679 0.03738331
0.55651057 -0.25696707 0.037433572
0.5551284 -0.25856677 0.037439249
0.5543884 -0.25585592 0.037484229
0.55300015 -0.25701678 0.037495188
0.55093604 -0.25587553 0.037545174
0.54932153 -0.2575956 0.037553594
0.54751736 -0.25410974 0.037626576
0.54648381 -0.25552893 0.03762823
0.54645324 -0.25333473 0.037654541
0.54541969 -0.25475395 0.037656173
0.54467964 -0.25204307 0.037701152
0.5436461 -0.25346228 0.037702776
0.54187256 -0.25217062 0.03774938
0.67241192 -0.22356944 0.034771033
0.67111546 -0.22534974 0.034773082
0.66955757 -0.22721735 0.034378693
0.66822684 -0.22943573 0.034401212
0.66680998 -0.23153427 0.034443345
0.66535395 -0.23380782 0.034109041
0.66401649 -0.23578 0.034204841
0.66258883 -0.23738326 0.034157708
0.66126812 -0.23903514 0.034586836
0.65944701 -0.24137242 0.034791678
0.68038875 -0.2081276 0.034811031
0.67904431 -0.21020278 0.034524743
0.67806131 -0.21198007 0.034521274
0.67702705 -0.21389383 0.034302793
0.67549688 -0.21606272 0.034221098
0.67432308 -0.21849243 0.034129988
0.67276365 -0.22063383 0.034132484
0.67142367 -0.22261041 0.034228258
0.67028391 -0.22428912 0.034133498
0.66893989 -0.22632788 0.034049995
0.66715008 -0.22861463 0.033804815
0.66558874 -0.23075852 0.033807289
0.66402745 -0.23290242 0.033809792
0.66272634 -0.23468901 0.033811867
0.66111654 -0.23652418 0.033818841
0.65963793 -0.23853791 0.034071431
0.65820867 -0.24062014 0.034155685
0.65624654 -0.24242893 0.034335952
0.65449965 -0.2442978 0.034444943
0.65286595 -0.24614987 0.034566443
0.65134728 -0.24800628 0.034857355
0.65056944 -0.24907447 0.034858581
0.68292034 -0.20016307 0.034859743
0.6818049 -0.20229319 0.034854487
0.68071532 -0.20469771 0.034595504
0.67942011 -0.20690608 0.034286898
0.67801291 -0.20881012 0.034011617
0.67671639 -0.21097437 0.033842474
0.65277648 -0.24384755 0.033880636
0.65162814 -0.24565774 0.034213115
0.65021688 -0.24697439 0.034139358
0.64873576 -0.24895212 0.034447979
0.64674765 -0.25043243 0.034910366
0.64506263 -0.25214773 0.034920104
0.68368512 -0.19499858 0.034906868
0.68293095 -0.1970121 0.034696527
0.68195665 -0.19892587 0.034335665
0.68078464 -0.2012005 0.034028057
0.67966259 -0.20355056 0.03387747
0.67841005 -0.20564589 0.033875041
0.64744443 -0.2481667 0.033924438
0.64526498 -0.2499747 0.034084707
0.64350539 -0.25172555 0.034396984
0.64175737 -0.25348806 0.034677155
0.63986355 -0.25517261 0.034976728
0.63851875 -0.25664526 0.034983262
0.68466085 -0.18917038 0.034958035
0.68375289 -0.19163692 0.034570046
0.68264019 -0.19382678 0.034188997
0.68183994 -0.19593136 0.033928391
0.68121076 -0.19729587 0.033923507
0.64165801 -0.25160813 0.03398658
0.64030838 -0.25308597 0.033993129
0.63859594 -0.25455528 0.034339622
0.63679308 -0.25623262 0.034564078
0.63492376 -0.25784141 0.035032947
0.63353062 -0.25900641 0.035043966
0.68444788 -0.18628235 0.034745693
0.68372941 -0.18804534 0.034273282
0.68297052 -0.1903751 0.033973623
0.63561136 -0.25540692 0.034049153
0.63372558 -0.25692391 0.034064759
0.63195074 -0.25859773 0.034521051
0.63053524 -0.26027596 0.034882076
0.68520159 -0.18057328 0.035049461
0.6842863 -0.18247756 0.034668233
0.68373185 -0.18461321 0.034313608
0.6303454 -0.25813374 0.034110442
0.62863153 -0.25973958 0.034455366
0.62711012 -0.26130903 0.034830663
0.62556279 -0.26246694 0.035144534
0.684488 -0.1772072 0.03490163
0.68408149 -0.17910127 0.034515038
0.68356884 -0.18080327 0.034408864
0.62509865 -0.26068872 0.034373488
0.62344611 -0.26199108 0.034687553
0.62190896 -0.26317382 0.034950987
0.68507874 -0.17176537 0.035155106
0.68440491 -0.17380485 0.034976415
0.68360865 -0.17578305 0.034419551
0.62163496 -0.26108617 0.03423018
0.62011874 -0.26264551 0.034784347
0.61824399 -0.26403889 0.035255827
0.61714232 -0.26505291 0.035263456
0.68449867 -0.16807353 0.035208762
0.68406558 -0.170063 0.03506805
0.68333393 -0.17224385 0.034346893
0.61864477 -0.26218942 0.034270227
0.61689687 -0.26318884 0.0344145
0.61519164 -0.26463798 0.035177864
0.61345071 -0.26563379 0.035322051
0.6839186 -0.16438167 0.035262443
0.68348527 -0.16636951 0.035121746
0.68275225 -0.16854115 0.034400705
0.61494011 -0.26277232 0.034329072
0.61319381 -0.2637715 0.034473311
0.61149836 -0.26521909 0.035236526
0.60975909 -0.26621467 0.03538068
0.6830197 -0.16298205 0.035128124
0.68217051 -0.16483843 0.034454543
0.61123538 -0.26335526 0.034387894
0.60949081 -0.26435417 0.034532093
0.60812503 -0.26582447 0.035247527
0.68213475 -0.15951008 0.03510125
0.68183172 -0.16129129 0.034710627
0.60753071 -0.26393819 0.034446709
0.60627466 -0.26504332 0.034831077
0.60475618 -0.26645839 0.035193756
0.68237185 -0.15453674 0.035405524
0.68160266 -0.15612371 0.035150446
0.68121433 -0.15798207 0.034814
0.60272658 -0.26558247 0.034957107
0.60101634 -0.26674962 0.035529379
0.68302232 -0.15065129 0.035439629
0.6815064 -0.15280092 0.035330124
0.68037695 -0.15501025 0.034560129
0.6799413 -0.1569998 0.034419455
0.6012916 -0.26449805 0.034550749
0.59930503 -0.26591587 0.035069432
0.5972603 -0.2669203 0.035593968
0.68092608 -0.14910762 0.035383821
0.67979503 -0.15130696 0.034613959
0.6793592 -0.15329491 0.034473293
0.59721005 -0.26507694 0.034816325
0.59570485 -0.26610076 0.035256073
0.59408724 -0.26678902 0.035651777
0.68030649 -0.14540395 0.035549454
0.67902446 -0.14761855 0.034768179
0.67841995 -0.14932987 0.034536533
0.59380877 -0.26516604 0.034842234
0.59266341 -0.26575205 0.035689183
0.67836916 -0.14404655 0.035099629
0.67741531 -0.14575472 0.034596357
0.59180355 -0.26451457 0.034718752
0.59038222 -0.2650356 0.035137888
0.67814273 -0.14065011 0.035543658
0.67669296 -0.14238 0.034759939
0.5873844 -0.26457715 0.034796372
0.58614951 -0.26477146 0.034815967
0.67772251 -0.13698329 0.035694174
0.67627037 -0.13899235 0.035321243
0.67505789 -0.14068404 0.034697719
0.58469623 -0.26445007 0.035559971
0.58314425 -0.26535827 0.03586258
0.67641097 -0.13420625 0.03534998
0.67573422 -0.13573827 0.035172522
0.67436707 -0.137629 0.034745853
0.67404062 -0.13957861 0.034728762
0.58272254 -0.26361015 0.035033237
0.58117861 -0.26494348 0.035777275
0.67474955 -0.13242432 0.03563375
0.6734637 -0.13392361 0.035305537
0.67248392 -0.13571072 0.0348018
0.58010739 -0.2625584 0.034949072
0.57906663 -0.26376012 0.035397969
0.57772112 -0.26495057 0.035963506
0.67164028 -0.13037407 0.035879664
0.67131501 -0.1323168 0.035862595
0.67022896 -0.13430285 0.034858309
0.57707942 -0.26227552 0.03525614
0.57538772 -0.2637623 0.035907693
0.67029595 -0.12934619 0.035665527
0.66999769 -0.13129491 0.035564579
0.57513702 -0.26112589 0.035054035
0.57373691 -0.26230913 0.035665106
0.66943687 -0.12799443 0.035346534
0.57169491 -0.26136762 0.035712346
0.57006544 -0.26237208 0.036129519
0.56951654 -0.26032674 0.035734616
0.56833392 -0.26138344 0.036171824
0.5675028 -0.258847 0.035216141
0.56624097 -0.26012617 0.03595091
0.66352683 -0.12098505 0.0351336
0.56477994 -0.25701824 0.036036078
0.56402147 -0.25889468 0.036177516
0.66203266 -0.11994456 0.035394572
0.66008234 -0.12121065 0.03519202
0.65901858 -0.12227178 0.036198623
0.56306028 -0.25590807 0.036329638
0.56197476 -0.25702468 0.036335763
0.65990663 -0.1185389 0.035476554
0.65836895 -0.12037292 0.035232212
0.55979407 -0.25615826 0.036051199
0.65836143 -0.11681579 0.035559893
0.55781072 -0.25507519 0.035932381
0.55681092 -0.25626087 0.036436282
0.5558573 -0.25420412 0.036477357
0.55472064 -0.25485411 0.036347009
0.55323356 -0.25556272 0.036507901
0.55279607 -0.25336331 0.035985846
0.55122662 -0.25482768 0.036552116
0.5503512 -0.25237092 0.035596292
0.54915524 -0.25368237 0.036602296
0.54795545 -0.25607798 0.03659543
0.54801291 -0.25077736 0.035656482
0.54701942 -0.2521269 0.036658436
0.54607391 -0.24902153 0.035711471
0.54523957 -0.25083065 0.036705226
0.54420555 -0.24748504 0.035762645
0.54345965 -0.24953437 0.036752015
0.54182655 -0.25117853 0.036761645
0.54213488 -0.24638715 0.035812266
0.54132384 -0.2479789 0.036808155
0.53976804 -0.25011528 0.036810644
0.540609 -0.24472906 0.035858784
0.53918803 -0.24642344 0.036864299
0.53879195 -0.24121845 0.03593225
0.53851366 -0.24302173 0.036249377
0.53705215 -0.24486795 0.036920439
0.53736305 -0.24017778 0.03596982
0.53642279 -0.24131891 0.036639884
0.53491634 -0.24331245 0.03697658
0.53521967 -0.23861679 0.036026135
0.53426665 -0.23980865 0.036584705
0.53343356 -0.23731601 0.036073107
0.5324201 -0.23867457 0.036241792
0.53171271 -0.23562527 0.036123469
0.53060657 -0.23744448 0.0361217
0.62994713 -0.09652961 0.036016207
0.62890631 -0.097958893 0.036017887
0.53002447 -0.23373958 0.036175542
0.52846313 -0.23588344 0.036178041
0.6278038 -0.094968647 0.036072552
0.62676287 -0.096397892 0.036074229
0.52887338 -0.23044056 0.036234707
0.52788103 -0.23217855 0.036231883
0.62533396 -0.095357239 0.036111772
0.52866626 -0.22509483 0.036301196
0.52788556 -0.22616675 0.036302447
0.52704823 -0.22860353 0.036288671
0.5257377 -0.2306176 0.036288224
0.52795178 -0.22457449 0.036319967
0.52632368 -0.22504534 0.036771964
0.52499181 -0.22707945 0.036843136
0.52342629 -0.22932997 0.037244551
0.52429461 -0.22426122 0.037138633
0.52304637 -0.22594935 0.037391014
0.52262414 -0.22288178 0.036434304
0.52156937 -0.2244145 0.036980607
0.52080715 -0.2193712 0.03650777
0.52074099 -0.22096348 0.036490247
0.51943988 -0.22275007 0.036492296
0.52110273 -0.21521182 0.036551386
0.51974434 -0.21764021 0.036546938
0.5185976 -0.21940249 0.036546566
0.51729655 -0.22118908 0.036548641
0.5197708 -0.21478866 0.036579981
0.51846975 -0.21657526 0.03658206
0.51716864 -0.21836184 0.036584135
0.67333853 -0.21791543 0.032820545
0.67177171 -0.22006686 0.032823067
0.67046607 -0.22185975 0.032825142
0.66912329 -0.22381373 0.032450888
0.66769654 -0.22592813 0.032493006
0.66612792 -0.22808212 0.032495532
0.6646896 -0.23017913 0.032579724
0.6632899 -0.23183975 0.03240642
0.662076 -0.23376805 0.032583889
0.6606732 -0.23590963 0.032833673
0.65871513 -0.23799565 0.03284388
0.65714836 -0.24014713 0.032846373
0.67797697 -0.20702595 0.032866269
0.67719364 -0.20810169 0.032867514
0.67624646 -0.21015567 0.032860145
0.67507517 -0.21260466 0.032741003
0.67358112 -0.21483073 0.032519087
0.67204857 -0.21702304 0.03240937
0.67077255 -0.21909112 0.032280706
0.66913211 -0.22057481 0.031772744
0.66742086 -0.22256683 0.03153719
0.66584671 -0.22472832 0.031539734
0.66427261 -0.22688985 0.031542249
0.6630587 -0.22881858 0.03120767
0.66168141 -0.2305353 0.031434216
0.66012841 -0.2327773 0.031679891
0.6590032 -0.23502433 0.03231797
0.65737206 -0.23708844 0.032544922
0.65580344 -0.23924243 0.032547418
0.65420592 -0.24134873 0.03266212
0.65275079 -0.24287097 0.032892339
0.65117782 -0.24457891 0.03290011
0.64925253 -0.2464693 0.032912079
0.68078762 -0.19864656 0.032914899
0.67966425 -0.2007917 0.032909613
0.67856383 -0.20321086 0.032650631
0.67721736 -0.20539835 0.032454312
0.6758064 -0.20722239 0.032045092
0.67448384 -0.20895436 0.031738602
0.6730203 -0.21122146 0.031404547
0.67147207 -0.2134119 0.031322893
0.66994989 -0.21563128 0.031157102
0.66897082 -0.21766931 0.031233866
0.6674006 -0.21932697 0.030908842
0.66618377 -0.22175643 0.030901849
0.66460603 -0.22392298 0.030904345
0.66302824 -0.22608954 0.030906869
0.66171342 -0.22789501 0.030908974
0.6603986 -0.22970045 0.030911047
0.65842676 -0.23180109 0.030921347
0.65715122 -0.23389959 0.031252746
0.65557528 -0.23606364 0.031255234
0.65402949 -0.237964 0.031301972
0.65243429 -0.23938848 0.031302154
0.65094906 -0.24146461 0.031523813
0.64927107 -0.24344547 0.031947039
0.64795226 -0.24567008 0.032388806
0.64630389 -0.24767581 0.032727867
0.64435923 -0.24927115 0.032965887
0.64266235 -0.25099862 0.032975681
0.68255365 -0.19170143 0.032965191
0.68155777 -0.19344555 0.032962333
0.68079567 -0.19547142 0.032752018
0.67977083 -0.19736502 0.032503393
0.67812109 -0.19948399 0.031702075
0.67666155 -0.20174085 0.031368025
0.67528087 -0.2039527 0.031222587
0.67411441 -0.20585831 0.031148089
0.67277497 -0.20754707 0.030951943
0.67138082 -0.21006839 0.030947018
0.67032897 -0.21151277 0.030948699
0.64902884 -0.24076121 0.030982666
0.64740205 -0.24261576 0.03098971
0.6462881 -0.24441376 0.031417005
0.64446044 -0.24604094 0.031386338
0.64277869 -0.2480315 0.031644579
0.64132649 -0.24974361 0.032113902
0.63996994 -0.2518498 0.032791134
0.63803023 -0.25344187 0.033029102
0.63659447 -0.25481075 0.033038482
0.68294758 -0.18814708 0.032999963
0.68180114 -0.19004995 0.032553382
0.68046832 -0.19237548 0.031882875
0.67923588 -0.19423302 0.031660624
0.67803943 -0.19612372 0.031326234
0.6763941 -0.19802557 0.030999634
0.67526293 -0.20018579 0.030994318
0.64134055 -0.24676666 0.031048395
0.63943166 -0.24901024 0.031222625
0.63809258 -0.25089464 0.031502042
0.636428 -0.25284994 0.031953108
0.63472456 -0.25469366 0.032628465
0.63333255 -0.25627646 0.033079065
0.68248761 -0.18440308 0.032852061
0.68165433 -0.1866398 0.032373801
0.68007827 -0.18877807 0.031376399
0.6789006 -0.19107245 0.031036932
0.67802638 -0.19335668 0.031025562
0.67697453 -0.19480105 0.031027246
0.63647807 -0.25040922 0.031091813
0.63506514 -0.25159067 0.031102981
0.6331948 -0.25327229 0.031480107
0.6316182 -0.25539386 0.032483332
0.62983352 -0.25709823 0.032767709
0.62804806 -0.25901291 0.033140592
0.68308496 -0.17891832 0.033105969
0.68227547 -0.18061431 0.032700296
0.68113768 -0.18285075 0.032094061
0.67972028 -0.18506165 0.031218033
0.67886287 -0.18715043 0.031083647
0.63135403 -0.25238776 0.031159397
0.62967002 -0.2538783 0.031171791
0.62800336 -0.2558502 0.031778276
0.62652189 -0.25778174 0.032272827
0.62499982 -0.25941679 0.032856476
0.62354696 -0.26067358 0.033200905
0.68254954 -0.17551023 0.033155479
0.68185049 -0.17766573 0.032428104
0.68048877 -0.17928199 0.031522363
0.67955887 -0.18154185 0.031137206
0.62636077 -0.2551983 0.031214911
0.62438929 -0.25689393 0.031229956
0.62288356 -0.2584936 0.031904675
0.62160861 -0.26020554 0.032685071
0.61956811 -0.26161712 0.033260357
0.68222058 -0.17206961 0.033201717
0.68111384 -0.1742235 0.032195881
0.67996365 -0.17630582 0.031524975
0.67915422 -0.17815256 0.03118421
0.62123674 -0.25717682 0.031282496
0.61958313 -0.25905266 0.031751413
0.61790204 -0.26092955 0.032797817
0.61617643 -0.26225665 0.033312965
0.68174726 -0.16886778 0.032997716
0.68083823 -0.17061804 0.03224308
0.67961359 -0.17260471 0.031407967
0.6175583 -0.2581819 0.031335909
0.61631727 -0.25952774 0.031592164
0.61465544 -0.26151314 0.032530285
0.61307311 -0.26258102 0.03286406
0.6811626 -0.16514657 0.033051789
0.68049598 -0.1669814 0.032473709
0.67938668 -0.16912577 0.031452876
0.67869973 -0.17119035 0.031274058
0.61453652 -0.2592968 0.03137638
0.61277229 -0.2603094 0.031520784
0.611265 -0.26204664 0.032584097
0.60998023 -0.26323164 0.033411339
0.68077207 -0.16150296 0.033351582
0.67991012 -0.16325279 0.03252795
0.67855346 -0.16543153 0.031469353
0.61043173 -0.25962296 0.031445313
0.6089837 -0.26063901 0.031792443
0.60765022 -0.26247999 0.032961376
0.60626251 -0.26381657 0.033470374
0.67992091 -0.15877952 0.033398651
0.67893177 -0.16029723 0.032398164
0.677948 -0.16200319 0.031562056
0.67752326 -0.16370231 0.031382911
0.60691816 -0.25964296 0.031507399
0.60538489 -0.26112017 0.032017294
0.60426128 -0.26318771 0.033290949
0.60283834 -0.2642495 0.033526003
0.6790815 -0.15478423 0.03346049
0.67837828 -0.15681228 0.032448895
0.67760181 -0.15891947 0.031637736
0.60352468 -0.26003233 0.031763002
0.60210276 -0.26156282 0.032213174
0.60050875 -0.26356921 0.033450246
0.59876215 -0.2645734 0.033594459
0.67849743 -0.1510663 0.033514518
0.6779871 -0.15316719 0.032832094
0.67697471 -0.15492842 0.031695753
0.60011339 -0.2605074 0.031903621
0.59870321 -0.26223493 0.032622755
0.5970093 -0.2637639 0.033412751
0.67723197 -0.14973173 0.033219211
0.67631215 -0.15168114 0.031920683
0.67595464 -0.15371823 0.031527996
0.59864318 -0.25987929 0.031651266
0.59686232 -0.26074255 0.031783856
0.59509921 -0.2626799 0.032863282
0.59362322 -0.26424009 0.033439443
0.67652512 -0.14645317 0.033403646
0.67566597 -0.14802858 0.032600183
0.6753664 -0.1499742 0.031582423
0.59483403 -0.26005235 0.031716779
0.59311992 -0.26133135 0.031843297
0.59165704 -0.26327935 0.033068784
0.58969301 -0.26464 0.033004288
0.67548209 -0.14265114 0.033666842
0.67510068 -0.14448294 0.033096418
0.6740216 -0.14599282 0.031903073
0.59091234 -0.26009089 0.031785876
0.58951926 -0.26170164 0.032291755
0.58827746 -0.26386666 0.033074185
0.58744419 -0.26560089 0.032782815
0.67411363 -0.14121553 0.03370798
0.67310363 -0.14289592 0.032305859
0.5889895 -0.25947997 0.031827111
0.58729857 -0.260427 0.032146055
0.58632582 -0.26242161 0.033173375
0.58526337 -0.26352257 0.033846095
0.67274702 -0.1373667 0.033777412
0.67243814 -0.13945793 0.033158198
0.67159808 -0.14123151 0.032252066
0.58537769 -0.25928098 0.031893492
0.58417529 -0.26101664 0.032894626
0.58263695 -0.26239371 0.033905912
0.67167157 -0.13658346 0.033805702
0.67053658 -0.13839792 0.032804266
0.5830797 -0.25849158 0.031943507
0.58202332 -0.25971696 0.032392383
0.5807218 -0.26136577 0.033523299
0.66987908 -0.13527806 0.033852797
0.66981268 -0.13687594 0.033835202
0.58014983 -0.25847098 0.032195713
0.57870084 -0.25984177 0.033255555
0.57796073 -0.26149672 0.033999383
0.67033947 -0.13012579 0.033905163
0.66891897 -0.13124672 0.033116993
0.66818547 -0.13270715 0.032579392
0.57657552 -0.25865293 0.032511584
0.57533246 -0.26043817 0.033915497
0.66819888 -0.12772249 0.032471035
0.6677143 -0.12975734 0.031955618
0.57450336 -0.25797409 0.032435019
0.57311869 -0.25905508 0.032959819
0.57173365 -0.26025414 0.034124356
0.66655111 -0.12642349 0.032015406
0.57095778 -0.25791958 0.032665223
0.56958884 -0.25913116 0.034175593
0.66535914 -0.12203974 0.033755053
0.66470373 -0.12476373 0.032567751
0.66364527 -0.12654953 0.032232147
0.5688026 -0.25688261 0.032590594
0.56730264 -0.25795823 0.033944111
0.66454178 -0.12151345 0.034109157
0.66251284 -0.12340139 0.033694271
0.66147965 -0.12497236 0.032289073
0.56628358 -0.25713903 0.032590572
0.66127247 -0.1221664 0.033959385
0.66034716 -0.12356307 0.032159001
0.56239527 -0.25503218 0.03235082
0.56134343 -0.25647658 0.032352503
0.65806544 -0.12099152 0.03322988
0.65673709 -0.12093395 0.032253869
0.56112659 -0.25373983 0.032388527
0.5602535 -0.25538543 0.033584893
0.65726286 -0.11694402 0.034291867
0.65683746 -0.11880935 0.033027239
0.65565407 -0.12014521 0.032282356
0.55951816 -0.25232053 0.032862358
0.55828601 -0.25381118 0.034063369
0.65605718 -0.11524102 0.033888713
0.65472376 -0.11739136 0.032997988
0.65384907 -0.11883064 0.03232979
0.55757844 -0.25113964 0.032767728
0.55589169 -0.25277573 0.034076273
0.65418953 -0.11393962 0.034214944
0.65253466 -0.11581878 0.033166438
0.65155154 -0.11743371 0.032386936
0.55517524 -0.24977396 0.032540645
0.55396974 -0.25125253 0.033944916
0.65205789 -0.11236897 0.034187838
0.6502912 -0.11425087 0.033558011
0.64999044 -0.116212 0.033429187
0.553101 -0.24837384 0.032593824
0.55179143 -0.25009757 0.033673953
0.55103409 -0.25176412 0.034591064
0.65009266 -0.11077968 0.033491194
0.64860094 -0.11293223 0.033158969
0.55084318 -0.246619 0.032654516
0.54978454 -0.24870098 0.033871248
0.54893184 -0.25050747 0.034643121
0.64829397 -0.10946971 0.033538476
0.64680195 -0.11134456 0.033400025
0.54883015 -0.24533716 0.032705221
0.54797578 -0.24709851 0.034116644
0.54709077 -0.24889225 0.034694735
0.64613551 -0.10789777 0.033595193
0.64471567 -0.11003623 0.032928444
0.54732496 -0.24416728 0.032745644
0.54582036 -0.24552809 0.034173291
0.54386437 -0.24654253 0.034779541
0.64395183 -0.10633125 0.033763453
0.64247894 -0.10847325 0.033319864
0.641087 -0.10996853 0.032993589
0.54480416 -0.2427735 0.032806724
0.54364514 -0.24403071 0.034062747
0.54278886 -0.24575928 0.034807798
0.64199382 -0.10505772 0.034535497
0.64024621 -0.10691277 0.033711195
0.63955778 -0.10861412 0.033703402
0.54263812 -0.24119602 0.032863647
0.54175556 -0.24235713 0.034265961
0.64018828 -0.10375427 0.034638368
0.6382767 -0.10557993 0.033476003
0.63724285 -0.10673667 0.032766275
0.54073507 -0.23925748 0.032920204
0.5399065 -0.24111986 0.034313254
0.63801366 -0.10219352 0.034806397
0.63662422 -0.10413822 0.033808008
0.63543785 -0.10542212 0.032813735
0.53893006 -0.2379429 0.032967612
0.53801745 -0.23945604 0.034341317
0.63586271 -0.10062704 0.034862943
0.63442492 -0.10274091 0.034196779
0.63363284 -0.10410755 0.032861173
0.53715587 -0.23634011 0.033160806
0.5360446 -0.23778696 0.034576479
0.63371176 -0.099060558 0.034919459
0.63216585 -0.10120549 0.034810551
0.63073587 -0.10315344 0.033923954
0.53525591 -0.23459959 0.03329432
0.53387225 -0.23626319 0.034521759
0.63191932 -0.097755156 0.034966584
0.63035256 -0.099906623 0.034969077
0.62857503 -0.10187395 0.034810785
0.53302026 -0.23147176 0.034148622
0.53286135 -0.2331309 0.034532048
0.53235281 -0.2348491 0.034454189
0.628299 -0.098959796 0.035016619
0.62696898 -0.10059773 0.035020936
0.6252318 -0.1016648 0.035039224
0.53211677 -0.23004816 0.03351457
0.53126425 -0.23201576 0.035173539
0.62614805 -0.097393319 0.035073135
0.6249662 -0.09913253 0.034295738
0.62451488 -0.10114266 0.035058089
0.53053296 -0.22863203 0.034351088
0.52972496 -0.23009904 0.035223372
0.62410337 -0.095492624 0.035131715
0.62296456 -0.097485811 0.033350378
0.62158597 -0.098649666 0.033138875
0.52901393 -0.22703078 0.035105307
0.52799803 -0.22840235 0.035273932
0.62232041 -0.093946092 0.03393124
0.62076688 -0.095927 0.033629928
0.61942613 -0.097518802 0.033190437
0.61866677 -0.094313264 0.033241604
0.61708897 -0.096479818 0.033244099
0.52508348 -0.22165564 0.033654481
0.52436191 -0.22308099 0.034600724
0.61492294 -0.094902329 0.033301052
0.61355913 -0.096395813 0.033307642
0.52397579 -0.22011061 0.034067377
0.52285093 -0.22191003 0.035441466
0.61311793 -0.093587779 0.033348486
0.6115731 -0.095557302 0.033352692
0.52269167 -0.21685529 0.035503663
0.52237105 -0.21884193 0.034985889
0.52167809 -0.22050714 0.035478726
0.60973513 -0.094439767 0.033398442
0.60837132 -0.095933236 0.033405036
0.52223581 -0.21597454 0.035522118
0.5211913 -0.21740887 0.03552378
0.6075691 -0.092862286 0.033455364
0.60625428 -0.094667763 0.033457469
0.60510439 -0.095488124 0.033468187
0.51954299 -0.21221903 0.03361354
0.51875412 -0.2133023 0.033614803
0.51775175 -0.21529882 0.034323558
0.60408825 -0.093090288 0.033514418
0.60282058 -0.094614267 0.033518966
0.51895475 -0.20847499 0.033667937
0.51849574 -0.21042991 0.033778168
0.51726258 -0.21228629 0.034653388
0.51569033 -0.21444531 0.034655895
0.51558381 -0.21606879 0.035638914
0.6006074 -0.093318269 0.033573445
0.59896427 -0.095068805 0.033582002
0.59725577 -0.096403353 0.033596564
0.51836658 -0.20473099 0.033722363
0.51803672 -0.20670116 0.0337051
0.51700068 -0.20886928 0.034531474
0.51546389 -0.21097632 0.034700666
0.59873307 -0.092098497 0.034621194
0.59718215 -0.094229139 0.034290228
0.59558308 -0.096045576 0.033880476
0.59423393 -0.097518258 0.033637039
0.51763207 -0.20331191 0.033752047
0.51634437 -0.20542099 0.034750309
0.51513845 -0.20764409 0.035079014
0.51374745 -0.20974287 0.034995645
0.59536201 -0.092947528 0.034670983
0.59377891 -0.09512537 0.034895711
0.59243065 -0.096594781 0.034680098
0.51693988 -0.20011817 0.033968572
0.51594144 -0.20200504 0.034697585
0.51450771 -0.2041361 0.035698168
0.5916056 -0.093585037 0.035285734
0.5900057 -0.095251381 0.034405436
0.51641905 -0.19640511 0.033854708
0.51528382 -0.19836034 0.034435362
0.51369393 -0.2005741 0.035521053
0.58791417 -0.094083652 0.034345146
0.58622348 -0.095368415 0.03380432
0.51504785 -0.19310398 0.033917792
0.51436299 -0.19488426 0.034284122
0.51310915 -0.19696942 0.034806967
0.51164454 -0.19883323 0.034911044
0.5847007 -0.093960494 0.034514662
0.58300519 -0.095813915 0.033856153
0.58136243 -0.096985854 0.033871483
0.51445961 -0.18935993 0.033972219
0.51379043 -0.1913116 0.034294568
0.51236856 -0.19330306 0.034963179
0.58132666 -0.094796345 0.034397997
0.57978648 -0.09672226 0.033902526
0.51459336 -0.18614177 0.034007672
0.5136013 -0.1877941 0.034505948
0.51214212 -0.18983409 0.035007954
0.57794905 -0.095623761 0.034170285
0.57654184 -0.097232804 0.033954035
0.51382697 -0.1825389 0.034313608
0.51337069 -0.18450399 0.034423675
0.51178682 -0.18640928 0.035254542
0.57487768 -0.09640763 0.03399324
0.51431572 -0.17691369 0.034120996
0.51364672 -0.1788798 0.034443177
0.51257157 -0.18103902 0.034830891
0.51096511 -0.1832041 0.035773508
0.51388049 -0.1734653 0.034169234
0.51323754 -0.17541409 0.034602303
0.51181805 -0.17744112 0.035270438
0.56408739 -0.10098288 0.034130767
0.56277257 -0.10278835 0.034132868
0.51378733 -0.17008796 0.034460604
0.51270151 -0.1716347 0.034878492
0.51125872 -0.1736906 0.035435561
0.56106561 -0.10209779 0.034171268
0.55935669 -0.10401093 0.034179091
0.55771399 -0.1051829 0.034194417
0.51616561 -0.16223542 0.034260668
0.51502699 -0.16443586 0.034455057
0.51392913 -0.16672137 0.034692146
0.51274782 -0.16854429 0.034913983
0.55734628 -0.10284287 0.034228452
0.55600703 -0.10449234 0.034232818
0.55456102 -0.10604439 0.034240216
0.55270433 -0.10788943 0.034251422
0.55107754 -0.10974398 0.034258492
0.51720423 -0.15663686 0.034308024
0.51622629 -0.15898961 0.03467283
0.51492161 -0.16105381 0.035185702
0.51345015 -0.16314587 0.035631724
0.54940569 -0.10906582 0.034629498
0.54780489 -0.11122354 0.034410268
0.54628098 -0.11299248 0.034305334
0.54475307 -0.11425597 0.034317601
0.54286337 -0.11647162 0.034325063
0.51867068 -0.14969209 0.034363631
0.51803482 -0.15107101 0.03435871
0.51713294 -0.1531312 0.034350507
0.51583433 -0.15520275 0.034904867
0.54146373 -0.11542499 0.034695599
0.53985673 -0.11758763 0.034476411
0.53790271 -0.11949015 0.034377575
0.53658795 -0.12129562 0.034379624
0.53527313 -0.12310109 0.034381755
0.53369534 -0.12526765 0.03438428
0.53211761 -0.12743419 0.034386776
0.53057277 -0.12940374 0.034391012
0.52886391 -0.13114329 0.034400862
0.52754915 -0.13294876 0.034402966
0.52597129 -0.1351153 0.034405462
0.66794157 -0.21707259 0.029925458
0.66662216 -0.21888432 0.029927563
0.66540116 -0.22132225 0.029920571
0.66381788 -0.22349636 0.029923081
0.66249847 -0.22530812 0.029925186
0.66117907 -0.22711986 0.029927289
0.65959579 -0.22929394 0.029929832
0.65796334 -0.23115498 0.029936906
0.65606695 -0.23337834 0.02994439
0.65474755 -0.23519009 0.029946495
0.65369207 -0.2366395 0.02994819
0.67342055 -0.20498145 0.0299704
0.67188644 -0.20746866 0.029968349
0.67061627 -0.20959349 0.029965919
0.66897053 -0.21184841 0.029695816
0.6677897 -0.21366057 0.029718172
0.6665194 -0.21552961 0.029551996
0.66498357 -0.21776378 0.029386299
0.66344625 -0.22000042 0.029220577
0.66213232 -0.22199607 0.029303791
0.66067308 -0.22365186 0.02915862
0.65921319 -0.22581312 0.029227331
0.65762579 -0.22799288 0.029229864
0.65603834 -0.23017263 0.029232396
0.65461016 -0.23217529 0.029584244
0.65310299 -0.23378503 0.029392011
0.65174186 -0.23588398 0.029491499
0.65011501 -0.23799317 0.02966227
0.64849985 -0.23987424 0.029779967
0.64711905 -0.24155082 0.029806968
0.64544928 -0.24339059 0.030014982
0.67652458 -0.19615149 0.03001911
0.67551827 -0.19791397 0.03001624
0.67432791 -0.20025542 0.030009832
0.67329091 -0.20211442 0.030006379
0.67204255 -0.20399138 0.029784165
0.6705637 -0.20626754 0.029450215
0.66901225 -0.20847991 0.029340632
0.6671648 -0.21050051 0.029016215
0.66584086 -0.21231855 0.02901835
0.66451687 -0.2141366 0.029020451
0.66324222 -0.21626878 0.029018005
0.66170275 -0.21876462 0.029015956
0.66037881 -0.22058266 0.029018059
0.65905482 -0.22240071 0.029020192
0.65746605 -0.22458236 0.029022722
0.65587729 -0.22676401 0.029025251
0.653925 -0.22868094 0.029037334
0.652601 -0.23049897 0.029039439
0.65127707 -0.23231703 0.029041572
0.64968824 -0.23449865 0.029044099
0.64809942 -0.2366803 0.029046629
0.64677548 -0.23849835 0.029048733
0.64559966 -0.24050009 0.029296145
0.64410001 -0.24252439 0.029604543
0.64241689 -0.24450937 0.030055607
0.64047134 -0.24641964 0.030067656
0.63883889 -0.24828064 0.030074731
0.63747025 -0.24977928 0.030081367
0.67857313 -0.18877092 0.030069513
0.67770183 -0.1905763 0.030063743
0.67692268 -0.19255973 0.030054241
0.67571437 -0.19445784 0.029719964
0.67420244 -0.1966944 0.02949821
0.67265242 -0.1989031 0.029388577
0.67143756 -0.2008138 0.029054295
0.6701135 -0.2026318 0.0290564
0.66880816 -0.20486088 0.029053343
0.66766298 -0.2075246 0.029042348
0.66607422 -0.20970625 0.029044878
0.64674407 -0.23624966 0.029075719
0.64535433 -0.23764881 0.029083908
0.64365858 -0.23914975 0.029096331
0.64204514 -0.24117431 0.029101167
0.64045632 -0.24335597 0.029103696
0.63882107 -0.24543978 0.02933047
0.6373089 -0.24741563 0.029736917
0.63579518 -0.24891928 0.029978275
0.63430637 -0.25064382 0.030127307
0.63265795 -0.25181985 0.030142728
0.67870736 -0.1855415 0.030105054
0.67765307 -0.18735975 0.029935714
0.67625493 -0.18929958 0.029548686
0.67508191 -0.19122592 0.029102325
0.67404133 -0.19309139 0.029098874
0.67253268 -0.19549036 0.029097434
0.67112255 -0.19757952 0.029097889
0.66998345 -0.1997548 0.029092513
0.6691891 -0.20084563 0.029093793
0.64006144 -0.24084254 0.029140236
0.63900226 -0.24229698 0.029141912
0.63701671 -0.24441227 0.029152244
0.63536245 -0.24576721 0.029165654
0.63401717 -0.24753538 0.029279863
0.63249028 -0.24945882 0.029798348
0.63107646 -0.25155535 0.030173853
0.62962556 -0.25293863 0.030183323
0.67869401 -0.18137279 0.030154284
0.67753661 -0.18357149 0.029815542
0.67603314 -0.18570113 0.029423144
0.6749025 -0.18803474 0.029143021
0.63364357 -0.24507181 0.029204298
0.6319232 -0.24641569 0.029219028
0.63034296 -0.2483118 0.029324757
0.62897003 -0.25043431 0.029640898
0.62747866 -0.25247526 0.029954012
0.62585294 -0.25421122 0.030012967
0.62435102 -0.25612128 0.030239455
0.67884618 -0.1762156 0.030212171
0.67812163 -0.17808336 0.030036392
0.67705899 -0.17988014 0.029533971
0.67576337 -0.18203992 0.029198186
0.67488915 -0.1838516 0.029192384
0.6285497 -0.24748304 0.029266285
0.62663072 -0.24902678 0.029282164
0.62517464 -0.25058964 0.029289629
0.62394196 -0.25271341 0.029468361
0.62240905 -0.25463334 0.029745743
0.62118751 -0.2564052 0.030292198
0.6194731 -0.2577444 0.030306861
0.67840946 -0.17275521 0.030260582
0.67777431 -0.17486241 0.029913675
0.67651916 -0.1765904 0.029448828
0.67562079 -0.17826344 0.029245077
0.62345582 -0.24989428 0.029328242
0.62208247 -0.25139815 0.029334925
0.62044436 -0.25326562 0.029342033
0.61914092 -0.2554487 0.029895179
0.61747169 -0.25725725 0.03034804
0.61545235 -0.25869787 0.030366933
0.6782366 -0.16893247 0.030308554
0.67718339 -0.17110102 0.029968318
0.67597985 -0.17337777 0.029296106
0.67549062 -0.1753864 0.029281192
0.61895704 -0.25240502 0.029378498
0.61703795 -0.25412351 0.029392334
0.6154207 -0.25619909 0.029618889
0.61375278 -0.25805798 0.030293427
0.6120249 -0.2593441 0.030420085
0.67753595 -0.16583438 0.030357372
0.67663103 -0.16750312 0.029978734
0.6756494 -0.16956648 0.029346745
0.61498845 -0.25337288 0.02943749
0.61329275 -0.25487381 0.029449914
0.61191815 -0.25669757 0.029595748
0.61049455 -0.25829035 0.030173842
0.67648757 -0.16225061 0.029917948
0.676247 -0.16398181 0.03010189
0.67523223 -0.16582993 0.029540913
0.61128438 -0.25438496 0.029491261
0.60985535 -0.2551249 0.029507924
0.60848635 -0.25715208 0.030008469
0.60681909 -0.25887993 0.030517833
0.6765396 -0.15867624 0.030459128
0.67568052 -0.16095585 0.02982243
0.67450804 -0.16298524 0.0294443
0.60804409 -0.25425094 0.029550292
0.60661209 -0.25569338 0.0297016
0.60518211 -0.25761065 0.03018667
0.60389286 -0.25904089 0.030567825
0.67591262 -0.15550244 0.030507544
0.67527068 -0.157323 0.02987238
0.67464274 -0.15974462 0.029479988
0.60493535 -0.2549547 0.029597122
0.60321498 -0.25629854 0.029611852
0.60155624 -0.2580514 0.030509723
0.59983313 -0.25933748 0.030636316
0.67506444 -0.15146515 0.030570025
0.67446238 -0.15356143 0.030111525
0.67363751 -0.15539558 0.029548917
0.60086155 -0.2552523 0.02966585
0.59942198 -0.25673211 0.030007375
0.59779072 -0.25858942 0.03068129
0.59601068 -0.25951117 0.030702027
0.67387271 -0.14994729 0.030233888
0.67288512 -0.15197259 0.029602472
0.59905016 -0.25437832 0.029708248
0.59726399 -0.25530326 0.029729033
0.59579527 -0.25716016 0.030358396
0.59442919 -0.25924668 0.030733183
0.67319965 -0.14675629 0.03049171
0.67246938 -0.14824475 0.029796515
0.59521449 -0.2545526 0.029774189
0.59384549 -0.25577152 0.029927
0.59260494 -0.25767839 0.030476149
0.59116703 -0.25931081 0.030790238
0.67178154 -0.14481555 0.030331243
0.6709494 -0.1464822 0.029701304
0.59204 -0.25483745 0.029827105
0.59059232 -0.25647718 0.030166935
0.5891065 -0.25819159 0.030697066
0.58793795 -0.25917727 0.030849056
0.67034131 -0.14171088 0.030568291
0.66994441 -0.14356706 0.030039158
0.58875227 -0.25498688 0.02988366
0.5871985 -0.25667232 0.030335888
0.58553326 -0.25816536 0.030903596
0.67030907 -0.13617194 0.030834006
0.66938066 -0.137951 0.030579517
0.66860098 -0.1403721 0.030148108
0.66800988 -0.14211556 0.029804725
0.58681601 -0.2543717 0.029925209
0.58505446 -0.25545371 0.029943716
0.58342892 -0.25710538 0.030731054
0.58164525 -0.25792158 0.030975379
0.66927743 -0.13505091 0.030865449
0.66802102 -0.13676092 0.030242484
0.66710335 -0.13839486 0.029864496
0.58304608 -0.25496483 0.029985063
0.58125895 -0.25583678 0.030117624
0.58029455 -0.25749242 0.031004366
0.66985297 -0.12918541 0.030924156
0.66789138 -0.13361901 0.030906862
0.66639614 -0.13528895 0.030342173
0.5792104 -0.25513914 0.030051002
0.57821846 -0.25669366 0.030717144
0.57643938 -0.25745741 0.031073127
0.66680813 -0.12940785 0.030975539
0.66576517 -0.13175362 0.030966476
0.66463506 -0.13395411 0.029960424
0.57782215 -0.25449908 0.030083135
0.57603693 -0.25537115 0.030215666
0.5745098 -0.25684434 0.031114519
0.66530651 -0.12825084 0.031015743
0.66368896 -0.13018416 0.030688284
0.66276008 -0.13205995 0.03001591
0.57359004 -0.25419918 0.030161701
0.57228398 -0.25564826 0.030945793
0.57050896 -0.25646555 0.031189917
0.66283578 -0.1274021 0.031069521
0.66162068 -0.12876529 0.030449923
0.66137242 -0.13060418 0.03005763
0.57145828 -0.25292486 0.030214448
0.57025325 -0.25422749 0.030595567
0.56912541 -0.2558277 0.031221922
0.66102451 -0.12608297 0.031117141
0.65991235 -0.12675621 0.030557409
0.56836134 -0.25290573 0.030436266
0.56707281 -0.25466552 0.030887254
0.56540138 -0.25662756 0.031278536
0.56460977 -0.25771463 0.031279825
0.65925652 -0.12380196 0.031050265
0.65823543 -0.12498084 0.030179307
0.56608617 -0.25151655 0.030326257
0.56490403 -0.25335833 0.03092568
0.56378782 -0.2553415 0.031322252
0.56289685 -0.25702167 0.031318314
0.65733099 -0.1223537 0.030851334
0.65641785 -0.12365711 0.030227078
0.56426859 -0.25019282 0.030374028
0.56297314 -0.25177985 0.030878415
0.56204265 -0.25362691 0.031373333
0.65489888 -0.12097538 0.03078562
0.65423667 -0.12206864 0.030284405
0.56245095 -0.24886909 0.030421797
0.56079578 -0.25019413 0.030935656
0.65283918 -0.11956786 0.030738631
0.65241909 -0.12074491 0.030332174
0.55867159 -0.24897209 0.030709848
0.55769551 -0.25046098 0.03148761
0.65139937 -0.11820998 0.030713432
0.55661356 -0.24789891 0.030965324
0.55588418 -0.24914181 0.031535227
0.65020657 -0.11690779 0.030416487
0.55475247 -0.24675302 0.030833172
0.55352813 -0.24740958 0.031263962
0.64710104 -0.11353313 0.030511208
0.55300885 -0.245635 0.031127278
0.55156547 -0.24575517 0.031251512
0.64490372 -0.11258511 0.031061392
0.54957461 -0.24444644 0.031273581
0.64319193 -0.11167749 0.030935675
0.54777551 -0.24151994 0.030768313
0.54741454 -0.2429415 0.031091388
0.64251786 -0.11038684 0.031629644
0.54632145 -0.24046099 0.03080653
0.54555571 -0.24188481 0.031553518
0.63820595 -0.10881824 0.031224385
0.54445446 -0.23882309 0.030858878
0.54352701 -0.24031085 0.031524628
0.63675433 -0.10776107 0.031262536
0.63606071 -0.10883144 0.030762177
0.54233044 -0.23728894 0.031164585
0.54167533 -0.2386429 0.03166043
0.63448095 -0.10619731 0.03182134
0.63361478 -0.10760658 0.03081993
0.54018688 -0.23582479 0.031303145
0.53922015 -0.23700571 0.031973232
0.63266969 -0.10487817 0.031868957
0.63200665 -0.10624988 0.030864362
0.53837138 -0.23450261 0.031350844
0.53777111 -0.23595041 0.032011315
0.63131899 -0.104449 0.031897943
0.63060796 -0.10486028 0.030905493
0.53655589 -0.23318043 0.031398576
0.53452104 -0.23160151 0.031369861
0.53356546 -0.23301391 0.031870347
0.62436074 -0.10197991 0.031050084
0.53291029 -0.22931254 0.031341944
0.62321472 -0.10084957 0.031655237
0.62174875 -0.10174701 0.031099103
0.53120345 -0.22753257 0.031726554
0.62148124 -0.099687345 0.032128286
0.62002987 -0.10105166 0.03113775
0.61918092 -0.098659016 0.032181129
0.61788708 -0.10012197 0.031631228
0.61616129 -0.10101649 0.031206761
0.52745438 -0.22282527 0.031348195
0.52613038 -0.22464332 0.0313503
0.61566699 -0.098559543 0.032022312
0.6143499 -0.1001425 0.031249128
0.52693588 -0.21995597 0.031557798
0.52627671 -0.22182699 0.032047633
0.52506065 -0.22447558 0.032371458
0.61329341 -0.097532094 0.032298747
0.61197084 -0.099112473 0.031525686
0.61021024 -0.10002121 0.031323943
0.5252474 -0.21816856 0.031997696
0.52499819 -0.21999379 0.032425221
0.6114884 -0.096661136 0.032341003
0.61027014 -0.097740397 0.032149866
0.60913998 -0.098920494 0.031689245
0.52335232 -0.21768609 0.032481529
0.6086216 -0.096791402 0.032390282
0.60724711 -0.097945243 0.031956531
0.60551584 -0.098828182 0.031421192
0.52236968 -0.21300119 0.031553756
0.52104574 -0.21481924 0.031555891
0.60498297 -0.096676446 0.032456145
0.60346639 -0.098077528 0.031466346
0.52208555 -0.2098265 0.031596117
0.52102816 -0.21176431 0.032147758
0.51982766 -0.21416897 0.032251947
0.60269117 -0.095799558 0.032507073
0.60129941 -0.096960373 0.032184724
0.59963065 -0.098251812 0.031532288
0.52126229 -0.2063694 0.031818017
0.52047563 -0.20813611 0.032269627
0.51977754 -0.20990704 0.032636289
0.59923095 -0.096237049 0.032563277
0.59755296 -0.09753406 0.032006212
0.59579492 -0.098426089 0.031598255
0.52048194 -0.20235215 0.031712353
0.51971734 -0.20455219 0.032245625
0.51907688 -0.20680897 0.032685108
0.59580362 -0.096883304 0.032616429
0.59474808 -0.098332711 0.032618124
0.51966822 -0.19990468 0.031755537
0.519077 -0.20148057 0.032247614
0.51848662 -0.20305189 0.032739718
0.59110057 -0.097233079 0.031695474
0.518323 -0.19839415 0.031997163
0.51794553 -0.19960792 0.032789767
0.59026819 -0.096364014 0.032720659
0.58844101 -0.097406596 0.032169253
0.58680105 -0.098553501 0.031756185
0.51760924 -0.19417611 0.031859331
0.51715481 -0.19603954 0.032445662
0.58703911 -0.096230447 0.032779478
0.58533221 -0.097545542 0.032460917
0.58362657 -0.098838337 0.031809129
0.516976 -0.19073112 0.032053921
0.51630294 -0.192765 0.032470636
0.51585698 -0.19448245 0.032887023
0.58361173 -0.096876681 0.03283266
0.58193493 -0.098389484 0.032344498
0.58051789 -0.099542126 0.031855963
0.51667339 -0.18760799 0.03220313
0.51574475 -0.18954313 0.032613654
0.58024991 -0.097940356 0.032879736
0.57851088 -0.099088863 0.032396987
0.57681382 -0.10055422 0.031909734
0.51690394 -0.18231077 0.032011263
0.51644224 -0.18429121 0.032121185
0.51558548 -0.18621661 0.032822255
0.51487315 -0.18822065 0.032978021
0.5761472 -0.098372027 0.032947399
0.57477194 -0.099841915 0.032509975
0.57304394 -0.10114741 0.031969588
0.5719189 -0.10218293 0.031977378
0.51673055 -0.17847477 0.032059386
0.51590508 -0.18046957 0.032425687
0.51503128 -0.18242085 0.03304337
0.57359499 -0.096420862 0.033015598
0.57260507 -0.098287717 0.033011187
0.57127309 -0.1000671 0.032513782
0.56991452 -0.1017021 0.032143589
0.56793362 -0.1034539 0.032033112
0.51639318 -0.17473364 0.032252219
0.51572096 -0.17679127 0.03266862
0.51485842 -0.17859809 0.03309134
0.56911206 -0.098516479 0.033070445
0.56779265 -0.10032824 0.033072546
0.56619555 -0.10248363 0.032742139
0.56456465 -0.10448231 0.032330774
0.56257492 -0.10622874 0.032095496
0.51671571 -0.16881879 0.032173093
0.51574099 -0.17130087 0.032589912
0.51503849 -0.17338835 0.032863587
0.56634361 -0.099272937 0.03311063
0.56476033 -0.10144705 0.033113141
0.56286401 -0.1036704 0.033120655
0.56121117 -0.10551631 0.032794837
0.55984622 -0.10730197 0.03213127
0.55842352 -0.10849166 0.032142498
0.51817441 -0.16376013 0.032206677
0.51707864 -0.16590281 0.032400992
0.51577187 -0.16791184 0.032867316
0.51473343 -0.16963455 0.033198867
0.55988085 -0.10510227 0.033156715
0.55819297 -0.10620204 0.033173718
0.55674791 -0.10781911 0.03273578
0.5549956 -0.10972793 0.032331619
0.5528 -0.11163008 0.03220531
0.51996523 -0.15671752 0.032257665
0.51895541 -0.15848613 0.032254793
0.51795828 -0.16064987 0.032818604
0.51744419 -0.16270977 0.03283212
0.51629138 -0.16457698 0.033230696
0.51528507 -0.16633946 0.033227827
0.55506843 -0.1071428 0.033218049
0.55335367 -0.10888842 0.033227924
0.5515461 -0.11084764 0.032951169
0.55007255 -0.11240176 0.032744683
0.54868567 -0.11379787 0.032752916
0.54669631 -0.11580992 0.032264423
0.52255046 -0.14858413 0.032307401
0.52154064 -0.15035273 0.032304529
0.5204047 -0.15266928 0.032583207
0.51915687 -0.154863 0.032849472
0.51820487 -0.1571535 0.033283971
0.51733357 -0.15895888 0.033278201
0.54735339 -0.11316919 0.033284023
0.54537475 -0.11527716 0.033294309
0.54378414 -0.11725204 0.032965951
0.54161704 -0.11901364 0.032888398
0.5400967 -0.12071624 0.032573819
0.53873903 -0.12253503 0.032326467
0.53715026 -0.12471668 0.032328993
0.5355615 -0.12689835 0.032331526
0.53423744 -0.12871635 0.032333657
0.53291351 -0.13053441 0.032335758
0.53096122 -0.13245133 0.032347843
0.52937245 -0.13463297 0.032350373
0.52796853 -0.13717186 0.032345455
0.52682316 -0.13889742 0.032345481
0.52549922 -0.14071545 0.032347582
0.5239104 -0.14289707 0.032350115
0.52252805 -0.14536819 0.032345578
0.52114779 -0.14733113 0.03272206
0.52013636 -0.14918858 0.033057533
0.51919782 -0.15122232 0.033336069
0.51832658 -0.15302771 0.033330299
0.5391106 -0.11992028 0.033350818
0.53779119 -0.12173203 0.033352919
0.53620791 -0.12390615 0.03335546
0.53462464 -0.12608021 0.033357974
0.53304136 -0.12825432 0.033360485
0.53172195 -0.13006608 0.03336259
0.53004026 -0.13161401 0.033374228
0.52845705 -0.13378812 0.033376742
0.52687371 -0.1359622 0.033379283
0.52492815 -0.13787249 0.03339133
0.52368975 -0.13965537 0.032677881
0.66504735 -0.21184374 0.028037731
0.66371882 -0.21366809 0.028039861
0.66231006 -0.21621577 0.028034886
0.66089499 -0.21831214 0.028035382
0.65956646 -0.22013648 0.028037485
0.65823787 -0.22196081 0.028039616
0.65664363 -0.22415002 0.028042164
0.65504932 -0.22633919 0.02804471
0.65335596 -0.22789787 0.028056385
0.65202743 -0.2297222 0.028058488
0.65043312 -0.23191141 0.028061034
0.64883888 -0.23410061 0.02806358
0.64777601 -0.23556007 0.02806527
0.66870439 -0.20222273 0.028085958
0.66756129 -0.20440552 0.028080568
0.66651106 -0.20676756 0.028071461
0.66518253 -0.20859191 0.028073564
0.66385394 -0.21041624 0.028075697
0.6622597 -0.21260545 0.028078243
0.66066539 -0.21479464 0.028080789
0.65907115 -0.21698384 0.028083336
0.6577425 -0.21880814 0.028085439
0.65641403 -0.22063251 0.028087571
0.65481973 -0.22282171 0.02809009
0.65322542 -0.22501089 0.028092634
0.65189683 -0.22683522 0.028094767
0.65056837 -0.2286596 0.02809687
0.648974 -0.23084876 0.028099416
0.64737976 -0.23303796 0.028101962
0.64605117 -0.2348623 0.028104095
0.6446979 -0.23652901 0.028108494
0.64271402 -0.23829491 0.028122881
0.64107025 -0.24016887 0.028130023
0.67309093 -0.19313301 0.028114982
0.67176235 -0.19495735 0.028117085
0.67021763 -0.19746181 0.028115068
0.66920429 -0.19923653 0.028112162
0.66787577 -0.20106086 0.028114323
0.66628152 -0.2032501 0.028116871
0.66468722 -0.20543927 0.028119387
