# .PCD v0.7 - Point Cloud Data file format
VERSION 0.7
FIELDS x y z
SIZE 4 4 4
TYPE F F F
COUNT 1 1 1
WIDTH 1260
HEIGHT 1
VIEWPOINT 0 0 0 1 0 0 0
POINTS 1260
DATA ascii
0.080640949 -0.0057957405 0.0073131276
0.082699396 -0.005530233 0.0089472057
-0.072213233 -0.049609993 0.0099125691
-0.070636071 -0.048931774 0.0090064229
-0.068545915 -0.048825789 0.0078966701
0.079420544 -0.0089436835 0.0070424932
0.081187226 -0.008250121 0.0079428134
0.082982279 -0.0079767695 0.0090226633
-0.069817811 -0.051247999 0.0097184051
-0.067343526 -0.051054068 0.0083012376
0.078606948 -0.012924576 0.0071621668
0.079921775 -0.011520227 0.0075671053
0.081926771 -0.010650414 0.0088794697
0.083333187 -0.0092839776 0.0090634767
-0.068706445 -0.053620655 0.010043777
-0.066753216 -0.053456426 0.0089180423
-0.065198816 -0.053723108 0.0085548358
0.078960292 -0.014240828 0.0072032358
0.080319144 -0.014058537 0.0083126742
0.081812762 -0.013195145 0.0091792783
-0.067843035 -0.055444308 0.010101639
-0.066269152 -0.055822428 0.0099169957
-0.064279556 -0.055584483 0.0091142338
-0.062434752 -0.055464182 0.0081146173
0.078890219 -0.01670732 0.0074213641
0.080806345 -0.016451208 0.009026208
-0.065397464 -0.057590868 0.010173266
-0.0636537 -0.057123072 0.010163268
-0.061675992 -0.057526764 0.01018047
0.077739894 -0.020212168 0.0073827459
0.079173617 -0.019234763 0.0078010662
0.080981821 -0.018569432 0.0090079624
-0.062637143 -0.060213599 0.010260226
-0.060390409 -0.059897862 0.0092556365
0.07767044 -0.022675725 0.0076007564
0.079522058 -0.021737806 0.008656539
0.08121109 -0.020877041 0.0094125597
-0.061814137 -0.062234916 0.010324037
-0.05965472 -0.061981615 0.0092099747
-0.057916645 -0.061777484 0.0083187083
0.076283962 -0.025306083 0.0075348066
0.07818523 -0.025000777 0.0084306281
0.080010884 -0.023925597 0.0093360208
0.081376992 -0.022887802 0.0094744023
-0.060793348 -0.064296618 0.010389534
-0.059076503 -0.064299509 0.010018717
-0.056783311 -0.063445717 0.0085153803
0.076568767 -0.02776943 0.0076108202
0.078432187 -0.027238853 0.0090544475
0.080335021 -0.02596996 0.0095660267
-0.057993159 -0.066503271 0.010338841
-0.055896413 -0.065908216 0.0091502881
-0.053987421 -0.065897048 0.0084542818
0.075181328 -0.031716134 0.0077279964
0.07675571 -0.030382112 0.0084187156
0.078505062 -0.029677829 0.0093413806
-0.056774065 -0.068823732 0.010537789
-0.055010218 -0.068199731 0.0098978393
-0.052602451 -0.067873992 0.0088932849
-0.050529312 -0.068261653 0.0085350759
0.07401441 -0.034380835 0.0078065707
0.07540454 -0.033534482 0.0081592882
0.077194802 -0.032499239 0.0091325575
-0.054232799 -0.070166156 0.01058512
-0.052106731 -0.070007212 0.0098708598
-0.050063528 -0.069875956 0.0090143476
-0.048302408 -0.069545597 0.008579799
0.073787488 -0.036651284 0.0083041787
0.075712562 -0.03580071 0.009299241
0.077343822 -0.034557585 0.0098211197
-0.051574573 -0.071944304 0.010645976
-0.049331281 -0.07201428 0.0099533219
-0.047201559 -0.071571745 0.0089302538
0.072011493 -0.039639752 0.0081052519
0.073768072 -0.039024811 0.0091484673
0.075798593 -0.038086195 0.0099251634
-0.048206065 -0.074279286 0.010725657
-0.046155702 -0.073793955 0.0097154416
-0.044092704 -0.073307708 0.008705141
0.070006914 -0.042824447 0.0080547249
0.072280392 -0.042064723 0.0090376018
0.074531734 -0.041456018 0.0098821316
0.075763188 -0.04027551 0.0099919792
-0.045263994 -0.075759694 0.010611435
-0.042935554 -0.075353801 0.0095487209
-0.040306967 -0.07549043 0.008781177
0.067066379 -0.047062382 0.0081770206
0.068448134 -0.046004832 0.0083148172
0.070300899 -0.044976622 0.0088994037
0.072663307 -0.044131242 0.009768704
0.074721232 -0.04335773 0.010083604
-0.044259116 -0.077144191 0.01082292
-0.042196292 -0.077453457 0.010712452
-0.039891787 -0.077188514 0.0096916538
-0.037944525 -0.077087529 0.0093360571
0.066843376 -0.04878537 0.0083958358
0.068822458 -0.048066415 0.0093236621
0.070978872 -0.047092743 0.010063478
0.073009379 -0.045685336 0.010150514
-0.041154299 -0.079425357 0.010900292
-0.039399885 -0.079577506 0.010909295
-0.037132431 -0.07908012 0.010099294
-0.034956422 -0.07867752 0.0090346783
0.062976748 -0.052862797 0.0083441949
0.064712577 -0.051958017 0.0086543187
0.066821754 -0.051147848 0.0092108101
0.069064192 -0.050410215 0.010160128
0.070659593 -0.049118355 0.010249651
-0.038698066 -0.082191929 0.01099092
-0.036511369 -0.081647635 0.010868525
-0.033981532 -0.080726773 0.0098461285
-0.031434052 -0.080284953 0.0090924967
-0.028934844 -0.080341242 0.0089574466
0.060678549 -0.055987768 0.0084340423
0.062590532 -0.054843415 0.0089040156
0.065235361 -0.054299098 0.009810999
0.067537889 -0.053505845 0.010376026
0.068745762 -0.052434444 0.010346274
-0.033278599 -0.082820155 0.01077336
-0.030756537 -0.082233056 0.010233587
-0.028064437 -0.081814393 0.0094493153
-0.025712272 -0.081828423 0.0090108514
-0.024277642 -0.081913911 0.0090170046
0.056927912 -0.06012946 0.0085513731
0.058977421 -0.058707312 0.0086379936
0.061255921 -0.057766553 0.009156825
0.063415579 -0.056929514 0.010095369
0.065879226 -0.056379788 0.010459764
-0.030117363 -0.084561139 0.011084467
-0.027470626 -0.083983846 0.010739877
-0.025206029 -0.083710134 0.0099033136
-0.023107331 -0.083212785 0.0094347112
-0.021172853 -0.082962319 0.0090567004
0.054602478 -0.06255389 0.0088197989
0.056748096 -0.061835494 0.0091588842
0.059074234 -0.060900133 0.0099141859
0.061341643 -0.059958935 0.01043296
0.063652761 -0.058705356 0.01052537
-0.024620183 -0.085889094 0.011138614
-0.022323266 -0.085370831 0.01042809
-0.019764839 -0.084730722 0.0096144713
-0.017241616 -0.08461161 0.0094026178
-0.015198813 -0.084181704 0.009108671
0.050922152 -0.066361211 0.008927119
0.052948564 -0.065566897 0.0092635676
0.054935031 -0.064576849 0.0097738355
0.05722544 -0.063915648 0.010382921
0.059123259 -0.062723115 0.01063699
-0.021738674 -0.087918721 0.011207758
-0.019109357 -0.087259673 0.011082885
-0.0163888 -0.086546279 0.010578685
-0.014381652 -0.085812345 0.009875129
-0.012193056 -0.085405543 0.0094392961
-0.0095031373 -0.085240573 0.0091550667
-0.0074689738 -0.08493007 0.009150587
0.043888055 -0.071152851 0.0088561121
0.046164155 -0.070166036 0.0088315718
0.04836354 -0.068871699 0.0091309194
0.050757341 -0.068471186 0.0099734832
0.053150993 -0.067763858 0.010651274
0.05546565 -0.066507004 0.010743611
-0.018655144 -0.088959977 0.01124713
-0.015592893 -0.088761322 0.011248648
-0.013574236 -0.088134557 0.011067715
-0.011514267 -0.087652676 0.010891343
-0.0088435635 -0.087078258 0.01054682
-0.0062486157 -0.086474203 0.01001937
-0.0039827982 -0.085733071 0.0095172357
-0.0016127172 -0.085710682 0.0091888783
0.0011387507 -0.085442893 0.0091874739
0.033620965 -0.076729104 0.0090012336
0.034937825 -0.076375887 0.0089936769
0.037132561 -0.07578706 0.0089810919
0.039648484 -0.074641854 0.0089522991
0.042054206 -0.073383011 0.009253256
0.044575606 -0.072890401 0.0099113639
0.046807338 -0.072077923 0.010392321
0.04884696 -0.070899457 0.010432772
0.050936155 -0.07052476 0.010855231
-0.010319021 -0.089837745 0.011294506
-0.0082456302 -0.089437246 0.011287412
-0.0055313972 -0.088570766 0.01112469
-0.0034800856 -0.087908551 0.010752158
-0.0012051775 -0.087516569 0.010245558
0.0015250933 -0.087025844 0.0096814809
0.0040545724 -0.086314693 0.0094714435
0.0063205198 -0.085463829 0.0092009045
0.0085152667 -0.08487507 0.0091883205
0.010988363 -0.084446765 0.0091813114
0.013900412 -0.08390072 0.0091718026
0.01609516 -0.08331196 0.0091592185
0.018289905 -0.0827232 0.0091466336
0.020923607 -0.082016699 0.0091315499
0.023557303 -0.081310198 0.0091164364
0.025884936 -0.080852978 0.0094416924
0.028018706 -0.080193967 0.0095221205
0.030483514 -0.079305775 0.009405762
0.033047404 -0.078521118 0.0096103903
0.035536196 -0.077886216 0.0097917011
0.037640259 -0.077147901 0.009595627
0.03987788 -0.076447375 0.010119684
0.04235376 -0.07558883 0.01054423
0.044626959 -0.075014189 0.010810126
0.046566144 -0.074266165 0.010958802
0.0068698018 -0.08780437 0.010024171
0.0090589067 -0.0872171 0.010011617
0.01166666 -0.086480133 0.010078904
0.014253733 -0.08571139 0.010228499
0.01659839 -0.085189067 0.010329483
0.018698221 -0.084431835 0.010109385
0.02123099 -0.083802529 0.010270753
0.023810413 -0.083036274 0.010420429
0.02624475 -0.082612306 0.010719143
0.02842333 -0.081991948 0.010721446
0.030799381 -0.08144591 0.010805922
0.033418048 -0.080743432 0.010790851
0.036001962 -0.080001116 0.010885727
0.038549121 -0.07921952 0.011090478
0.040728834 -0.078634784 0.011077965
0.042626016 -0.077992387 0.011063012
0.014838136 -0.0883829 0.011312075
0.017336832 -0.087245509 0.011283463
0.019516543 -0.08666078 0.011270951
0.021498498 -0.086035706 0.011256723
0.02419495 -0.084938653 0.011229828
0.026810592 -0.084236927 0.011214831
0.029107286 -0.084087968 0.011215962
-0.028958663 0.067457892 0.0034400003
-0.027196852 0.06793052 0.003429916
-0.024994612 0.068521351 0.0034172803
-0.022351885 0.069230273 0.0034021232
-0.019709162 0.069939189 0.0033869664
-0.017506922 0.07053002 0.0033743305
-0.015304653 0.071120791 0.0033617248
-0.012661938 0.071829714 0.0033465677
-0.010900126 0.072302341 0.0033364533
-0.045427229 0.060208347 0.0036209896
-0.043504279 0.060960155 0.0036027431
-0.041140884 0.061830163 0.0035819758
-0.038616356 0.062979348 0.0035530764
-0.036414091 0.063570127 0.0035404407
-0.034211822 0.064160898 0.003527835
-0.031569127 0.064869873 0.0035126777
-0.028926406 0.065578789 0.0034975209
-0.026724137 0.066169567 0.0034848852
-0.024521893 0.066760398 0.0034722497
-0.021879168 0.067469314 0.0034570929
-0.019236453 0.068178229 0.0034419657
-0.017034212 0.06876906 0.0034293297
-0.014831939 0.069359839 0.0034166942
-0.012189216 0.070068754 0.0034015377
-0.0095465146 0.070777729 0.0033863806
-0.0073442459 0.071368508 0.0033737747
-0.0052003129 0.071673974 0.0033697248
-0.0025422496 0.071948804 0.0033678559
-0.00050110259 0.07226035 0.0033633821
-0.049563125 0.056267165 0.0037312368
-0.047403861 0.057520662 0.0036982442
-0.045394976 0.058329247 0.0036784804
-0.043192707 0.058920022 0.0036658447
-0.040550005 0.059628997 0.0036507174
-0.037907284 0.060337912 0.0036355609
-0.035705019 0.060928687 0.0036229249
-0.033502754 0.061519463 0.0036102892
-0.030860055 0.062228438 0.0035951324
-0.028207088 0.062951446 0.0034684399
-0.025982833 0.063570872 0.0032326812
-0.02374359 0.064206734 0.0028852317
-0.021094857 0.064917259 0.0028700754
-0.018636853 0.065651 0.0032705769
-0.016443891 0.065990075 0.0032298998
-0.014122869 0.066718407 0.0034991784
-0.011463555 0.067443125 0.0033724289
-0.0089386385 0.068252683 0.0032149446
-0.006721023 0.068612993 0.003030736
-0.0044329213 0.069317847 0.0034436232
-0.0017902208 0.070026815 0.0034284662
0.00085250632 0.070735738 0.0034133093
0.0030139498 0.071126789 0.0034066807
0.005214076 0.071197838 0.0034099419
0.0072551961 0.071509436 0.0034054383
-0.054139495 0.052207895 0.0038440046
-0.051980216 0.053461336 0.0038110123
-0.049530867 0.054388065 0.0037887273
-0.046882156 0.055119187 0.0035506054
-0.044669285 0.055739086 0.0032592046
-0.042456895 0.056348536 0.0030792993
-0.039797191 0.057084057 0.0028410535
-0.037159443 0.057769652 0.0030488973
-0.034952175 0.058361787 0.0030362578
-0.032736562 0.058967113 0.0029120427
-0.030069172 0.059704699 0.0026737773
-0.027417433 0.060416032 0.0026585464
-0.0009601792 0.067480549 0.0028413581
0.0016036379 0.068126164 0.0032725953
0.0037638396 0.068685077 0.0034831576
0.0059661046 0.069275849 0.0034705221
0.0086087994 0.069984823 0.0034553653
0.011217162 0.070118204 0.0034577257
-0.058071289 0.049265333 0.0039242459
-0.055987213 0.050296374 0.0038978676
-0.053784955 0.050887149 0.0038852617
-0.051582687 0.05147792 0.003872626
-0.048924677 0.0522638 0.0030214204
-0.046270557 0.052990668 0.0028390307
-0.044060796 0.05358351 0.0028263438
-0.041851014 0.054176297 0.0028136866
-0.039199274 0.05488763 0.0027984865
-0.036547549 0.055599023 0.0027832561
-0.034337766 0.056191809 0.0027705994
0.0019025601 0.065913782 0.002562793
0.0040459549 0.066459008 0.0028848858
0.0065569887 0.067074686 0.0035392344
0.0091997031 0.067783602 0.0035241069
0.011842416 0.068492576 0.0035089501
0.014044681 0.069083355 0.0034963146
0.015484214 0.068997569 0.0035024933
-0.061326295 0.04556049 0.00402945
-0.060123112 0.046355188 0.0040081143
-0.058040105 0.047394454 0.0038703533
-0.055397652 0.048129138 0.003520943
-0.05319168 0.048738603 0.0032854215
-0.050981894 0.049349871 0.00304983
-0.048329391 0.050070617 0.0029231957
-0.045677666 0.05078201 0.0029079956
-0.043586459 0.051816504 0.0028815339
-0.041376691 0.052409351 0.002868847
0.0073569701 0.065009251 0.0026038708
0.0097594559 0.065731049 0.0030879821
0.01234825 0.066197067 0.0032802243
0.014635571 0.066882126 0.0035650264
0.016837822 0.067472957 0.0035524205
0.019422218 0.067896575 0.0035458496
0.021693552 0.068146303 0.0035438114
-0.063979715 0.042253029 0.0041240021
-0.061736949 0.043569982 0.0039781025
-0.059540946 0.044185609 0.00357563
-0.057340913 0.044811841 0.0030617104
-0.054689195 0.045523234 0.0030464805
-0.052479412 0.046116021 0.0030338233
-0.05026963 0.046708807 0.0030211369
0.010278258 0.062951565 0.0026739547
0.012488044 0.063544348 0.0026612971
0.015113342 0.064240508 0.0027576373
0.017682726 0.064905763 0.0030771326
0.020245811 0.065570377 0.0033966547
0.022391878 0.066131219 0.0036071122
0.024513576 0.066582404 0.0035985427
0.026592307 0.066314146 0.0036118766
-0.065938428 0.03928921 0.0042097312
-0.063678138 0.04022954 0.0038531017
-0.061045941 0.040969547 0.003281157
-0.058839198 0.041568577 0.0031571081
-0.056629416 0.042161364 0.003144451
-0.054096285 0.04331452 0.0031154454
0.015851256 0.06160526 0.0027288375
0.01850298 0.062316652 0.0027136374
0.020712772 0.062909439 0.0027009808
0.022893179 0.063487329 0.0027998481
0.025393071 0.064124092 0.003342336
0.027945912 0.064789526 0.0036618037
0.03055427 0.064922906 0.0036641343
0.032586809 0.065090604 0.003664047
-0.069125392 0.035917226 0.0043049436
-0.067922212 0.03671192 0.0042836079
-0.065725975 0.037309516 0.0041040415
-0.063107811 0.038055744 0.0032539598
-0.060456067 0.038767077 0.0032387599
-0.058246288 0.039359864 0.003226073
-0.056597054 0.040275872 0.0032021548
0.019861227 0.060786795 0.0027637407
0.021413457 0.060887538 0.0027645058
0.023515433 0.061293568 0.0027572587
0.026167182 0.062004905 0.0027420586
0.028630463 0.062630333 0.0033960012
0.031179521 0.063297279 0.0037153587
0.033381797 0.063888058 0.0037027532
0.035036176 0.064174555 0.0036980794
-0.071059026 0.032566816 0.0044025551
-0.06939391 0.033839408 0.0043677907
-0.067346081 0.034520436 0.0040185358
-0.065162033 0.035131626 0.0034494055
-0.062514901 0.035847031 0.0033229252
-0.060236849 0.036773805 0.0033002172
0.024539525 0.059831925 0.0028044661
0.026760098 0.059796192 0.002811024
0.029411819 0.060507584 0.0027958229
0.03181294 0.061252706 0.0031541465
0.033902951 0.06154504 0.0034898105
0.036174931 0.062277663 0.0037588591
0.038173094 0.061869819 0.0037762292
-0.072992668 0.029216465 0.0045001963
-0.07132756 0.030489055 0.0044654021
-0.068857111 0.031292088 0.0037799778
-0.066664904 0.031892374 0.0034335526
-0.064455144 0.032485217 0.0034208959
-0.062177088 0.033411995 0.0033981579
0.027676374 0.058147792 0.0028636702
0.030181827 0.058143403 0.0028699785
0.032333098 0.058449894 0.0028659068
0.034542866 0.059042737 0.0028532199
0.036987048 0.059674673 0.0035069098
0.039446153 0.06020556 0.0038302224
0.041524883 0.059937298 0.0038435564
-0.072892375 0.02767022 0.0045476947
-0.070711836 0.028073668 0.0039154515
-0.068163201 0.028649166 0.0035289796
-0.065953426 0.029241955 0.0035162929
-0.064491034 0.030265681 0.0034886205
0.033033788 0.056427989 0.0029294328
0.03525437 0.056392264 0.0029359902
0.03790608 0.057103649 0.0029207896
0.040216334 0.057825018 0.0035297074
0.042607788 0.058717564 0.0038834866
-0.074826024 0.024319867 0.004645336
-0.072934859 0.025458133 0.0045040376
-0.070390694 0.025883703 0.0037509045
-0.067570291 0.026440451 0.003597945
-0.065921046 0.027356405 0.0035739967
0.036289237 0.054302093 0.0030024122
0.038498998 0.054894939 0.0029897555
0.041179623 0.055813909 0.0031111762
0.043387942 0.056663226 0.0038370583
0.045512661 0.057042785 0.0039418545
0.047111206 0.056716461 0.0039557391
-0.075903825 0.021592334 0.0047260225
-0.074432492 0.022223929 0.0045436132
-0.072280847 0.022809016 0.003697311
-0.069823138 0.023738893 0.0036749488
-0.068098448 0.024878064 0.0036443872
0.039172754 0.052826274 0.0030546258
0.041743651 0.053397559 0.0030434905
0.04406077 0.054152753 0.0031690244
0.046089116 0.054439053 0.0036476597
0.048384238 0.055052258 0.0040097618
-0.077439971 0.017640682 0.0048430171
-0.07592237 0.018991243 0.004694303
-0.073779128 0.019565752 0.0037927378
-0.071943045 0.020374039 0.0037725733
0.042513642 0.051033437 0.0031176452
0.044664904 0.051339921 0.0031135739
0.046874691 0.051932711 0.0031009167
0.049212806 0.0525604 0.0039767977
0.051335324 0.05294146 0.0040815221
-0.077339679 0.016094437 0.0048905155
-0.075358741 0.016778428 0.0043742508
-0.073186219 0.017357038 0.0038617032
-0.071978927 0.018154442 0.0038402982
0.045365609 0.04931796 0.0031770999
0.047467601 0.049723998 0.0031698821
0.050059799 0.050420649 0.0033216898
0.052407481 0.051058162 0.0041417354
0.05428749 0.051090531 0.0041453633
-0.078900903 0.012529374 0.0049956273
-0.077383846 0.013877961 0.0048469715
-0.074803092 0.014555538 0.0039433255
-0.072873577 0.015309934 0.0039250227
0.048319198 0.047963571 0.0032257687
0.050712228 0.048226673 0.0032236173
0.053119741 0.04888314 0.0038765047
0.055426247 0.049193643 0.0042061429
-0.07873328 0.010497751 0.0050581172
-0.076716676 0.011209749 0.0043743532
-0.074231729 0.011985864 0.0040232576
0.051639307 0.045949757 0.0032955082
0.05373615 0.046335179 0.0034318352
0.056118868 0.046771437 0.0041000047
0.058230165 0.046956845 0.0042814324
-0.078600027 0.007890638 0.0051381234
-0.076031819 0.0085432492 0.0041240361
-0.073957883 0.0092890458 0.0041063782
0.052900545 0.043604635 0.0033702662
0.054344997 0.043518566 0.0033764709
0.056837935 0.044202216 0.0037786143
0.059261493 0.044873819 0.0043476233
0.060701042 0.04478804 0.0043538017
-0.079770938 0.0052168402 0.0052169501
-0.078035295 0.0056676115 0.0048739929
-0.075438917 0.0063345367 0.0041930014
-0.073671103 0.006808836 0.0041828584
0.054937914 0.041309856 0.003445436
0.057493523 0.042006537 0.0036805591
0.059852403 0.042672597 0.0044163652
0.061614212 0.043145228 0.0044062505
-0.079485141 0.0027450081 0.0052931821
-0.07747931 0.0034307204 0.0044990769
-0.074846022 0.004125881 0.0042619668
-0.073315367 0.0054835947 0.0042242431
0.05557178 0.039301593 0.0035083648
0.057740603 0.039693933 0.0035017147
0.060131662 0.040370323 0.004153938
0.062427621 0.040868901 0.0044778129
-0.080393925 -0.00037762659 0.0053863926
-0.078938991 0.00022738248 0.0050380295
-0.076926388 0.00084481551 0.0043571293
-0.07525561 0.0021217829 0.0043222136
0.056242317 0.036450725 0.0035971417
0.058452085 0.037043504 0.0035844846
0.060841557 0.037725899 0.0042364877
0.063354626 0.03842077 0.0045549255
0.06535279 0.038012926 0.0045723254
-0.080119178 -0.0030344273 0.0054682731
-0.078284554 -0.002479197 0.0044553643
-0.076797009 -0.0018433437 0.0044396049
0.059163589 0.034393031 0.0036672254
0.061683379 0.035092231 0.0039855465
0.064063698 0.035779338 0.0046374099
0.066104814 0.036090933 0.0046329061
-0.079841949 -0.0052115605 0.0052019805
-0.07769163 -0.0046879095 0.0045243297
0.05975648 0.032184374 0.0037361905
0.06240822 0.032895707 0.0037209901
0.064856343 0.033592068 0.0042059813
0.067144752 0.034151752 0.0046947394
-0.080984637 -0.0078511909 0.0056133261
-0.079269342 -0.0074402005 0.0050492072
-0.077234566 -0.006743616 0.0045882636
0.060780562 0.030722724 0.0037833976
0.063081957 0.030827099 0.0037858607
0.065607354 0.031395536 0.0038858904
0.067888193 0.032085862 0.0047597066
-0.083562829 -0.012318364 0.0057434943
-0.080883659 -0.010804987 0.0055609439
-0.078597017 -0.010139887 0.0046886923
-0.077066347 -0.0087821716 0.0046509989
0.064359374 0.029157141 0.0038400588
0.066364355 0.028747907 0.0038574953
0.06873586 0.029449137 0.0045089172
0.070477247 0.029476849 0.0048458185
-0.082816519 -0.013587592 0.0052838889
-0.080640212 -0.013038453 0.0049389885
-0.078204595 -0.012307676 0.0047559259
0.067507006 0.02684455 0.0039184783
0.069467708 0.027247859 0.0042444598
0.071467772 0.027194103 0.0049180165
-0.082213052 -0.015632672 0.0050477572
-0.080062933 -0.015268645 0.0048418231
-0.078133419 -0.01451425 0.0048235501
0.068196908 0.025451105 0.0039627589
0.069759935 0.024923326 0.0039827689
0.071665064 0.025229609 0.004549766
-0.08147864 -0.017737163 0.0059142429
-0.079312377 -0.01785348 0.0053673321
-0.077182606 -0.017526727 0.0049179429
0.070471436 0.022272849 0.0040655094
0.072392687 0.022870434 0.0047189454
-0.078350216 -0.020242546 0.0058556059
-0.076206885 -0.020052122 0.004997531
0.071182914 0.019622428 0.0041482495
0.073288031 0.020185808 0.0048365565
-0.077562012 -0.023113919 0.0060882149
-0.075395294 -0.022066923 0.0050610984
0.071775831 0.017413717 0.0042172149
0.074285835 0.017816296 0.0050296909
-0.077281892 -0.025313862 0.0058226655
-0.075244345 -0.024394182 0.0051326072
0.072368734 0.015205002 0.0042861803
0.074755497 0.015596529 0.0047247661
-0.076690339 -0.027517565 0.0058914721
-0.074532866 -0.027044604 0.0052153473
0.073080249 0.012554526 0.0043689506
0.07550963 0.013285645 0.0048528397
-0.075528219 -0.030012077 0.0061373073
-0.073821366 -0.029695081 0.0052981176
0.07379172 0.0099041043 0.0044516907
0.076219931 0.010639659 0.0049354522
-0.074807085 -0.032622777 0.0063856007
-0.073228449 -0.031903792 0.0053670825
0.07438463 0.0076953932 0.0045206556
0.076927759 0.0081199324 0.005241591
-0.074216194 -0.034823943 0.006454342
-0.072635546 -0.034112506 0.0054360181
0.074977547 0.0054866788 0.004589621
0.077260993 0.0059076273 0.0052493801
-0.073625304 -0.037025169 0.0065230541
-0.071924053 -0.036762927 0.0055187885
0.074481755 0.0020387988 0.0046937671
0.07568904 0.0028362018 0.0046723615
0.077598453 0.0034779101 0.0053244587
-0.07287541 -0.039466877 0.0065995315
-0.070764072 -0.039270073 0.0057094251
0.074912988 -0.00045006795 0.0047708913
0.076559655 0.0001227023 0.0049003675
0.078351438 0.00098038069 0.0054860106
-0.071884885 -0.041749626 0.006671729
-0.070158496 -0.04142772 0.0059991772
-0.068291292 -0.041471038 0.0056716125
0.075225614 -0.0024971718 0.0048342403
0.07721059 -0.00185847 0.0053198412
0.079190202 -0.0012217407 0.0058054742
-0.071530357 -0.043070313 0.0067129862
-0.069554664 -0.043581598 0.0062888581
-0.067536697 -0.043399595 0.005732418
0.075818531 -0.0047058845 0.0049032057
0.077727653 -0.004047107 0.0055547259
0.079222456 -0.0031008383 0.0058629951
-0.068612054 -0.045960482 0.0066655916
-0.066663533 -0.045769859 0.0058070291
-0.065219082 -0.045855932 0.0058132042
0.076530032 -0.007356362 0.0049859462
0.078148246 -0.0065746596 0.0059665008
-0.067512453 -0.048363708 0.0068846419
-0.066062801 -0.048117083 0.0064805127
-0.064302795 -0.047504328 0.005865851
0.076881483 -0.0097245434 0.0050591864
0.078556515 -0.0094147502 0.0060543115
-0.065311313 -0.050134193 0.00674413
-0.063348755 -0.0497346 0.0059363376
0.075743228 -0.013250049 0.0051641138
0.077173822 -0.011864215 0.0053476109
0.078706972 -0.011734116 0.0061255447
-0.064689189 -0.052372921 0.0070141358
-0.062553003 -0.052215286 0.0061252848
0.075911425 -0.015288547 0.0052268486
0.07768482 -0.014453149 0.0058726687
-0.063698664 -0.054655671 0.0070863338
-0.06175667 -0.054687496 0.006341768
0.074514471 -0.01926228 0.0053448542
0.075945988 -0.017871922 0.0055282051
0.077669293 -0.017015025 0.0062844073
-0.061247412 -0.057057645 0.0063320627
-0.059365619 -0.05707163 0.0061704102
0.074878067 -0.0209895 0.0056486209
0.076502487 -0.020298803 0.0061317622
0.077836938 -0.019046647 0.0063468972
-0.060172521 -0.058935974 0.006425458
-0.058086302 -0.058705479 0.0063485475
-0.056002401 -0.059010718 0.0062379506
0.0749356 -0.023042155 0.0057615666
0.076902367 -0.022600925 0.0064532086
-0.057206586 -0.060891431 0.007042808
-0.054859746 -0.060914077 0.0062989327
0.073216759 -0.026429599 0.0055606901
0.075178176 -0.025444793 0.0061357087
-0.055813286 -0.062923089 0.0073584425
-0.053932033 -0.063056938 0.0068113557
-0.051712099 -0.063226722 0.0063773519
0.072585143 -0.029724469 0.005659834
0.074087858 -0.02874762 0.0059671737
0.075720765 -0.027873324 0.0066114296
-0.05300558 -0.065382436 0.0072976183
-0.051149208 -0.065033525 0.0066340789
-0.049685549 -0.064892933 0.0064332774
0.072617523 -0.03161002 0.0057175378
0.074421622 -0.031209802 0.0065851379
-0.051870622 -0.067056775 0.0074944817
-0.050411329 -0.066916719 0.0072937468
-0.048548475 -0.066571735 0.0066303033
0.070864126 -0.035079554 0.0058192322
0.072623745 -0.033869829 0.0061201015
0.074098699 -0.03326387 0.0067721722
-0.049636096 -0.0683451 0.0075393664
-0.047548518 -0.068732537 0.0071812035
-0.045446988 -0.068680868 0.0065595009
0.068923876 -0.038441367 0.0059172027
0.070685722 -0.037227836 0.0062179626
0.072673529 -0.036163162 0.0068572704
-0.046499167 -0.070649832 0.0076175462
-0.044270314 -0.070830151 0.0071838931
-0.042032007 -0.071048081 0.0066402489
0.067867562 -0.041566081 0.0060100867
0.069536708 -0.040299889 0.0065313173
0.071248375 -0.039062519 0.0069423681
-0.042975489 -0.072929524 0.0076958952
-0.04104583 -0.0727446 0.0070696687
-0.039121542 -0.072477199 0.006691088
0.066063821 -0.044259809 0.0060879844
0.06775599 -0.0435571 0.0064458563
0.069314741 -0.042412929 0.0070400094
-0.040099535 -0.074351475 0.0075463639
-0.038232349 -0.073955767 0.0072387294
-0.036211066 -0.073906317 0.0067419568
0.063749894 -0.047406178 0.0061784177
0.065608554 -0.046236683 0.0062584253
0.067332059 -0.045549035 0.0068808501
-0.037561085 -0.075803138 0.0077970559
-0.03532622 -0.075952709 0.0074736574
-0.032847848 -0.075845398 0.0068094968
0.061809663 -0.050767988 0.0062763882
0.063579567 -0.049540486 0.0065767355
0.065583527 -0.048447922 0.007215248
-0.034209285 -0.077735655 0.007864383
-0.031970616 -0.077887416 0.0075410358
-0.02993736 -0.077274576 0.0068603656
0.060281105 -0.053313024 0.0065504983
0.062219549 -0.052470688 0.0070797889
0.064226389 -0.051014364 0.0072903242
-0.031083105 -0.07941404 0.0079233795
-0.028710973 -0.079116598 0.0075199539
-0.02637952 -0.079349071 0.0072659836
-0.024579944 -0.078994378 0.0069261277
0.056297887 -0.057297818 0.00646237
0.058008678 -0.056250378 0.0067347614
0.059916094 -0.05533189 0.0071615633
-0.025969528 -0.080873869 0.0079805916
-0.023721155 -0.08044187 0.0075282799
-0.021227511 -0.08030495 0.0069744233
-0.019006936 -0.080340676 0.0069809812
0.052589819 -0.061133873 0.0065704542
0.054205362 -0.060366053 0.006801106
0.055827875 -0.059053641 0.0068900455
0.057591021 -0.058553766 0.007254275
-0.022854092 -0.081925906 0.0080204047
-0.020305982 -0.082166694 0.0077839685
-0.018131774 -0.081866682 0.0073632598
-0.015915377 -0.081973746 0.0070385183
-0.013875892 -0.08180552 0.0070384075
0.047555905 -0.065325618 0.0066861687
0.049847588 -0.064331993 0.0066614384
0.052018955 -0.063003652 0.0070708892
0.054216754 -0.061707012 0.0073923697
0.055986837 -0.060775775 0.0075683384
-0.017740494 -0.083385788 0.0080776475
-0.015224326 -0.083442636 0.007942657
-0.012580478 -0.083170362 0.007527947
-0.010146183 -0.082462437 0.007067665
-0.0080981096 -0.082149744 0.0070631672
0.043610677 -0.068278201 0.0067666722
0.045730978 -0.0677348 0.0071554631
0.047855217 -0.066935174 0.0072362982
0.049989641 -0.065674536 0.0075031957
0.051850941 -0.064716958 0.0076785856
-0.011745997 -0.08460933 0.0081297886
-0.0094064279 -0.084017463 0.0077422988
-0.007142616 -0.083820269 0.0076882746
-0.0049777678 -0.083619453 0.0075705172
-0.0021424177 -0.083253488 0.0074450723
0.00028832286 -0.082504556 0.007094691
0.002778362 -0.082073323 0.00708762
0.034599148 -0.073536977 0.0069051869
0.036808927 -0.072944194 0.0068925
0.039105229 -0.072283588 0.0073067369
0.041156203 -0.071137205 0.0072482014
0.043402161 -0.070168197 0.0074242046
0.045668423 -0.069289178 0.0076029878
-0.0017874272 -0.084769465 0.0081592379
0.00091755518 -0.0841837 0.0078145014
0.0031550936 -0.083653942 0.0076370975
0.0053946353 -0.083123617 0.0074596736
0.0080433711 -0.082413092 0.0074444879
0.010676213 -0.082058571 0.0072495588
0.013094285 -0.081673674 0.007100841
0.015304059 -0.081080891 0.0070881839
0.017955802 -0.080369554 0.0070729838
0.020057786 -0.07996352 0.0070657367
0.022575844 -0.079224847 0.007049372
0.025027087 -0.078472592 0.0070324098
0.027678814 -0.077761203 0.0070172097
0.03004732 -0.076825932 0.007327958
0.031986836 -0.075907037 0.0072213104
0.034463208 -0.075231627 0.0075124456
0.037075728 -0.074483827 0.0076071993
0.039615061 -0.073662668 0.0079218298
0.0035302534 -0.085230678 0.0081864446
0.0057325186 -0.084639899 0.0081738094
0.008375234 -0.083930984 0.0081586521
0.011288661 -0.083526947 0.0081534926
0.013338392 -0.0830715 0.008144632
0.015540639 -0.082480669 0.0081319958
0.018183362 -0.081771754 0.0081168395
0.020826062 -0.081062779 0.0081016822
0.023028322 -0.080472007 0.0080890469
0.02523059 -0.079881229 0.0080764405
0.027673481 -0.079131491 0.0080595259
0.030397844 -0.078023128 0.0080323843
0.032600109 -0.077432349 0.0080197491
-0.069000438 0.022747489 0.0027067969
-0.066880502 0.024147721 0.0026691938
-0.070878789 0.019709393 0.0027950164
-0.068967961 0.020855544 0.0027646529
-0.070832595 0.017884452 0.0028508804
-0.068373017 0.018639285 0.0028338716
-0.072093695 0.014790219 0.0029423437
-0.070438839 0.015709279 0.0029183039
0.048083607 0.04702932 0.0022532474
-0.073034637 0.011211638 0.0030494099
-0.071942233 0.012455011 0.0030140686
-0.069724932 0.013049811 0.0030013607
0.051350106 0.044896238 0.0023264978
-0.072720945 0.0091575654 0.0031129476
-0.071228318 0.0097955475 0.0030970946
-0.069011025 0.010390346 0.0030843867
0.052053161 0.042867456 0.0023901891
0.053621527 0.042337835 0.002410287
-0.072407231 0.0071034939 0.0031764857
-0.070633397 0.0075793476 0.0031663133
0.05264812 0.040651202 0.0024594371
0.05397848 0.041008104 0.0024518007
-0.072115161 0.0046872539 0.0032510203
-0.07003846 0.0053630881 0.0032355019
0.054854613 0.038629774 0.0025266395
-0.07573846 3.2696942e-05 0.0033843871
-0.07406199 0.0013139808 0.0033493203
-0.071541846 0.0021088226 0.0033312361
-0.075569697 -0.0020127408 0.0034473077
-0.073629297 -0.001183355 0.0034266957
-0.070984304 -0.00016475303 0.002735123
-0.07644143 -0.0044323523 0.0035190992
-0.075111054 -0.0040754499 0.0035114626
-0.072844222 -0.0032971941 0.0030645072
-0.076008737 -0.0069296882 0.0035965042
-0.07451614 -0.0062916507 0.0035806512
-0.072318383 -0.0057313852 0.0032354698
0.062750556 0.029581601 0.0028226366
-0.075878918 -0.0096270125 0.0036792257
-0.073802233 -0.0089511173 0.0036636775
-0.071616724 -0.0084193954 0.0030970438
0.063669965 0.027927555 0.0028754226
0.065119334 0.027841195 0.0028816536
-0.077079438 -0.01268129 0.003769614
-0.075424589 -0.011762176 0.0037455743
-0.073207282 -0.011167374 0.0037328959
-0.071037084 -0.010673434 0.0028894246
0.064264879 0.02571135 0.0029446413
0.0663286 0.026169932 0.0029357034
-0.076910667 -0.014726727 0.0038325645
-0.074829653 -0.013978434 0.0038147927
-0.072622426 -0.013405768 0.0036359834
-0.070450246 -0.012917203 0.0027927039
0.0670771 0.024089951 0.003001092
0.06896992 0.024122542 0.003004787
-0.076170817 -0.016951565 0.0039023701
-0.074115738 -0.016637897 0.003897819
-0.071958713 -0.016182523 0.0028888057
0.067791022 0.021430491 0.003084118
0.069564857 0.021906339 0.0030739754
-0.075294651 -0.019329952 0.0039772103
-0.073401839 -0.019297363 0.0039808452
-0.071361773 -0.018406272 0.0029582176
0.06850493 0.018771024 0.0031671743
0.070278756 0.019246876 0.0031570322
-0.07280691 -0.021513563 0.0040500639
-0.070764832 -0.020630019 0.0030276598
0.069099851 0.016554823 0.0032363632
0.070873678 0.017030675 0.0032262204
-0.07398583 -0.024205614 0.0041294545
-0.072211988 -0.023729766 0.0041192523
-0.070048496 -0.02329847 0.0031109718
0.069694795 0.014338565 0.0033055521
0.071468621 0.014814415 0.003295409
-0.073271908 -0.026865082 0.004212481
-0.071498074 -0.026389226 0.0042022793
-0.069332175 -0.025966922 0.0031942842
0.068191387 0.011084296 0.003401316
0.070408702 0.011679103 0.0033886079
0.072182529 0.01215495 0.0033784653
-0.072676979 -0.029081339 0.0042816699
-0.070921116 -0.028665867 0.0039398219
-0.068735234 -0.028190669 0.0032637261
0.068786308 0.0088680973 0.0034705342
0.071003616 0.0094628977 0.0034577965
0.07277745 0.0099387513 0.0034476542
-0.07208205 -0.031297538 0.0043508881
-0.070325524 -0.030884601 0.0040091048
-0.068138286 -0.030414416 0.0033331681
0.069381252 0.0066518383 0.0035396931
0.07159856 0.0072466428 0.0035269852
0.073372371 0.0077225477 0.0035168424
-0.07136815 -0.033957005 0.0044339146
-0.069610804 -0.033547062 0.0040922267
-0.067421958 -0.033082865 0.0034164803
-0.06519714 -0.032486051 0.0034037211
0.067943662 0.0033928412 0.0027782316
0.069949098 0.0037643949 0.0032541954
0.072312459 0.0045872349 0.0036100117
0.074086271 0.005063083 0.0035998989
-0.070654228 -0.036616471 0.004516941
-0.069032878 -0.036110841 0.0042553693
-0.06682501 -0.035306614 0.0034858924
-0.064600199 -0.034709796 0.0034731335
0.068443418 0.00098088023 0.002710266
0.070664361 0.0014555949 0.0031300224
0.073026367 0.0019277722 0.0036930677
0.074562229 0.0032900893 0.0036552497
-0.068216383 -0.03816282 0.0044272873
-0.066228077 -0.037530359 0.0035553344
-0.064003259 -0.036933545 0.0035425753
0.069040336 -0.0012428086 0.0027797073
0.070971005 -0.00074299524 0.0032693921
0.073621303 -0.00028848913 0.0037622564
-0.067609422 -0.040432509 0.0046410523
-0.065505214 -0.04016149 0.0038042739
-0.06328693 -0.039601997 0.0036258877
0.069756687 -0.0039113155 0.0028630197
0.071791224 -0.003272438 0.0032931794
0.073772758 -0.0026236388 0.0038340106
-0.066492088 -0.042912476 0.0047196299
-0.064770997 -0.042713635 0.0043843072
-0.062570594 -0.042270504 0.0037092001
-0.060113266 -0.041525975 0.0028349692
0.068432093 -0.0070626629 0.0027059549
0.070473008 -0.0065797656 0.0029463321
0.072553992 -0.0059482316 0.0032656647
0.074486665 -0.0052831015 0.0039170366
-0.065613769 -0.044767581 0.0047784816
-0.064045429 -0.045297146 0.0047984906
-0.062041417 -0.044650652 0.0040690694
-0.059292365 -0.043558415 0.0031313547
0.068902716 -0.0093099652 0.0024541877
0.071069956 -0.0088035157 0.0030157743
0.073287115 -0.0083146878 0.0034350259
0.075200588 -0.0079425666 0.0040000631
-0.063007049 -0.047394402 0.0048651733
-0.061222807 -0.046677042 0.0043474389
-0.058706939 -0.046001717 0.0038327668
-0.056042675 -0.045496512 0.0029345737
-0.053811312 -0.044924494 0.0028114142
0.069580235 -0.011665733 0.0027660658
0.071666904 -0.011027262 0.003085216
0.07359311 -0.010510859 0.0035743914
0.07560803 -0.010050741 0.0040655243
-0.062650099 -0.048724134 0.0049067168
-0.060638282 -0.049134806 0.0049241898
-0.057990607 -0.048670225 0.0039160792
-0.055321198 -0.048036005 0.0035697874
-0.053092565 -0.047601987 0.002895012
-0.050860234 -0.047003165 0.002882232
0.070158422 -0.014292585 0.0031812876
0.072636485 -0.013518208 0.0036083658
0.074616604 -0.01285088 0.0041486425
0.075827993 -0.01205077 0.0041271979
-0.059924364 -0.051794272 0.0050072162
-0.057393659 -0.050893974 0.0039855214
-0.054723799 -0.050219763 0.0038047337
-0.052493609 -0.049833223 0.0029646773
-0.050261281 -0.049234398 0.0029518972
-0.048475411 -0.048755325 0.0029416373
0.070755355 -0.016516274 0.0032506995
0.073301315 -0.015999349 0.0039915056
0.075049296 -0.015348217 0.004226048
-0.059329443 -0.054010469 0.0050764047
-0.056794137 -0.053058479 0.0042754542
-0.054126952 -0.052401498 0.0040396461
-0.051894657 -0.052064463 0.0030343425
-0.049662322 -0.051465634 0.0030215629
-0.047593333 -0.051149786 0.0030169943
0.068728209 -0.019472742 0.0032249009
0.071352296 -0.018740021 0.0033201412
0.073591754 -0.018185904 0.0041662492
-0.058653396 -0.056086164 0.0051415302
-0.056075808 -0.055633746 0.0046894155
-0.053410619 -0.055070009 0.0041229585
-0.051180106 -0.054607343 0.0036140592
-0.048943568 -0.054143131 0.0031051612
-0.046346433 -0.053566035 0.0030939211
0.066909462 -0.022912869 0.0029920274
0.06939885 -0.022124695 0.0034187704
0.071878053 -0.021338614 0.003845491
0.073723324 -0.020503061 0.0043803155
-0.057371654 -0.05776177 0.0051959027
-0.055278737 -0.05803182 0.0052093123
-0.052694786 -0.057675738 0.0044266544
-0.050469469 -0.057141643 0.0041935118
-0.048425764 -0.056520369 0.0034649393
-0.045665812 -0.055655785 0.0031594657
0.067535929 -0.025547238 0.0032964323
0.070021167 -0.024755606 0.0037230023
0.072356224 -0.023910878 0.0044810842
0.073892109 -0.022548553 0.0044432664
-0.054213323 -0.06008222 0.0052746208
-0.052271239 -0.060100149 0.0051370105
-0.050241448 -0.059684712 0.0046052979
-0.047614273 -0.058545344 0.0037431815
-0.045066852 -0.057887018 0.0032291317
-0.043281008 -0.05740789 0.0032188713
0.063424163 -0.028782861 0.0026070415
0.06565652 -0.028184028 0.0025942312
0.06804236 -0.027733114 0.0035868417
0.07059519 -0.027187798 0.0043267738
0.072345458 -0.026527163 0.0045610247
-0.05172557 -0.062265828 0.0053474749
-0.049586337 -0.061642241 0.0048334463
-0.047047891 -0.061024122 0.0042094588
-0.044348102 -0.060564514 0.0033127298
-0.042115785 -0.059965629 0.0032999197
0.061910614 -0.032059237 0.0027034497
0.064142935 -0.031460349 0.0026906398
0.066193834 -0.030777674 0.0031194896
0.068908066 -0.02991713 0.0038375922
0.071194321 -0.029223103 0.0044404981
0.072659165 -0.028581234 0.0046245921
-0.048940394 -0.063934088 0.0054053003
-0.046337131 -0.06362699 0.0045130667
-0.043834716 -0.062935576 0.0036723027
-0.041516826 -0.062196862 0.0033695849
-0.040177435 -0.061837547 0.0033619048
0.057787199 -0.035716757 0.00280505
0.059830774 -0.035009053 0.0027884752
0.062509567 -0.034290474 0.0027731149
0.065134712 -0.033932116 0.003197385
0.066963777 -0.033174157 0.0036075332
0.069589898 -0.032408521 0.0042337612
0.071761474 -0.031435411 0.0047096042
-0.047539655 -0.066052958 0.0054735406
-0.045636788 -0.066122428 0.0051468634
-0.04303164 -0.064917706 0.0040743072
-0.040917851 -0.064428158 0.0034392502
-0.038906429 -0.064025238 0.0034318867
0.056977786 -0.038644698 0.0028925347
0.058197409 -0.037839174 0.002870921
0.060429722 -0.037240289 0.0028581405
0.063108534 -0.036521707 0.0028427807
0.06543906 -0.035944659 0.0035455257
0.068165503 -0.035527363 0.0043255724
0.070164368 -0.034635693 0.0048034452
-0.044500299 -0.067930199 0.0055383914
-0.042478971 -0.067322038 0.0047466462
-0.040222559 -0.06694936 0.0040182574
-0.037966792 -0.066506766 0.0035100682
-0.035331532 -0.066517428 0.0035168824
0.056973182 -0.041174602 0.0029698359
0.058916152 -0.040516671 0.0029545194
0.061148483 -0.039917782 0.0029417393
0.063561663 -0.039054375 0.0035882518
0.066054374 -0.038242463 0.0040142536
0.068167113 -0.037600629 0.0047224052
-0.04380805 -0.069328345 0.0055828365
-0.041709628 -0.06963814 0.0054724077
-0.039537754 -0.06940981 0.0047621336
-0.037285425 -0.068971768 0.0042540478
-0.034576323 -0.0684302 0.0036883405
-0.031949554 -0.068036273 0.0035716195
-0.029418543 -0.068040676 0.0035780019
0.052447926 -0.045839749 0.0031012734
0.054919813 -0.044732425 0.0030735219
0.057402577 -0.043792989 0.003050928
0.059804995 -0.043237194 0.0031828042
0.061703589 -0.042311255 0.0036415334
0.064101644 -0.041625857 0.0041128565
0.06645266 -0.040736452 0.0048695663
0.068062514 -0.039792765 0.0049559036
-0.040433373 -0.071274064 0.0056506195
-0.038823932 -0.071602568 0.0056646219
-0.036627516 -0.071316779 0.0053278133
-0.033918247 -0.07081826 0.0046522776
-0.031341698 -0.070221327 0.0040150918
-0.029059157 -0.069379449 0.0036198013
-0.026981467 -0.068917729 0.0036108159
0.050600391 -0.048169203 0.0031679184
0.052643962 -0.047461502 0.0031513134
0.055322748 -0.046742864 0.0031359536
0.058125906 -0.046146527 0.0032675574
0.060455743 -0.045539554 0.0040011578
0.062852137 -0.044849057 0.0044722604
0.064737134 -0.043923706 0.004931008
0.06637165 -0.042938944 0.005047881
-0.035501208 -0.073118657 0.0057191355
-0.033264983 -0.073191091 0.0056156749
-0.030651577 -0.072325297 0.0047064023
-0.028474486 -0.071555845 0.0038544976
-0.026227884 -0.071011804 0.0036766562
-0.023766881 -0.070670523 0.0036723148
-0.021523649 -0.070706613 0.0036789321
0.049671188 -0.050650883 0.0032414694
0.051010583 -0.050291564 0.003233789
0.053242911 -0.049692743 0.0032209791
0.055921704 -0.048974101 0.0032056188
0.05828096 -0.04824163 0.0038143403
0.061063934 -0.047947358 0.0045625367
0.063025936 -0.047004238 0.0051638382
-0.032126531 -0.075064369 0.0057869181
-0.029943936 -0.074504502 0.0051498888
-0.02783028 -0.073953502 0.0047631133
-0.025540743 -0.073577628 0.00409027
-0.022830332 -0.072970718 0.0037448944
-0.020598019 -0.072371833 0.0037321143
-0.01842479 -0.072062232 0.0037280072
-0.01589378 -0.072066642 0.0037343602
0.044894449 -0.055440482 0.0033760658
0.046938017 -0.054732781 0.003359461
0.049638588 -0.053649552 0.0033330135
0.05172934 -0.052969057 0.0033173873
0.053961668 -0.052370232 0.0033045777
0.056390975 -0.051478814 0.0039503248
0.058894429 -0.050648298 0.0043757469
0.061024658 -0.049976163 0.0050829891
-0.02920616 -0.076498352 0.005837901
-0.027159577 -0.076449119 0.0053412616
-0.024899863 -0.075986788 0.0049436204
-0.022171404 -0.075458623 0.0043783798
-0.019917971 -0.074935921 0.0041456004
-0.017766729 -0.07400424 0.0037889695
-0.01508794 -0.073285602 0.0037736094
-0.012964505 -0.072875425 0.0037662932
-0.011396422 -0.072773717 0.003767052
0.043587744 -0.057704534 0.0034420281
0.045184858 -0.057116646 0.0034280035
0.047417201 -0.056517813 0.0034151936
0.050095979 -0.055799179 0.0033998331
0.052739043 -0.055409823 0.0038232259
0.054757722 -0.05465804 0.0043769497
0.057321388 -0.053683031 0.0048991684
0.059593726 -0.052518211 0.0053239339
0.060805116 -0.051718105 0.005302459
-0.026729239 -0.078051336 0.0058915094
-0.024215272 -0.07805571 0.0058978023
-0.021564189 -0.077782884 0.0054513905
-0.01943836 -0.0771567 0.0050817439
-0.017222997 -0.076082766 0.0042984751
-0.014488969 -0.075516894 0.0038432744
-0.012256652 -0.074918009 0.0038304643
-0.010024317 -0.074319184 0.003817684
-0.0072257388 -0.074046806 0.0038162568
-0.0048736278 -0.07389418 0.0038173797
0.041275639 -0.061274882 0.003545464
0.043551497 -0.059946764 0.0035104791
0.045783818 -0.059347879 0.0034976688
0.048016146 -0.058749054 0.0034848587
0.050537482 -0.057905145 0.0039099501
0.053129647 -0.057594962 0.004573836
0.055453971 -0.056882974 0.0053220419
0.057084445 -0.055567227 0.0054109315
-0.020466676 -0.079539083 0.0059524183
-0.018633179 -0.079269111 0.0057819188
-0.016509598 -0.078859553 0.0053577833
-0.013933457 -0.078081772 0.0048234919
-0.011415733 -0.077423587 0.0046237642
-0.0092622107 -0.076768547 0.0041445429
-0.0066443086 -0.076239675 0.0039958404
-0.0039479951 -0.0755594 0.003870562
-0.0017570399 -0.075163029 0.0038638469
0.00048182104 -0.074945115 0.003862699
0.0034350296 -0.074535571 0.0038574473
0.0056673614 -0.073936746 0.003844667
0.027544156 -0.068067998 0.0037192053
0.029776484 -0.067469172 0.003706425
0.032008804 -0.066870287 0.0036936146
0.034770358 -0.065746799 0.003666094
0.037322816 -0.064761348 0.0036422613
0.039359134 -0.063941725 0.0036222178
0.041591469 -0.063342899 0.0036094377
0.044196118 -0.062558055 0.0038141615
0.046611838 -0.061826296 0.0043258145
0.048988461 -0.06138726 0.0048412411
0.051128913 -0.060492069 0.0050465045
0.05316788 -0.059690736 0.0053605144
-0.015707556 -0.081034184 0.0060098455
-0.013152679 -0.080327652 0.0057444219
-0.01056936 -0.07967969 0.0053141331
-0.0082951682 -0.079202034 0.0049716351
-0.0060703699 -0.07860516 0.0049589057
-0.003305322 -0.07808122 0.0043938896
-0.00105681 -0.077521734 0.0042711245
0.0011156262 -0.076592982 0.0039146068
0.0037944131 -0.075874344 0.0038992467
0.0060267434 -0.075275518 0.0038864664
0.0082590608 -0.074676633 0.003873656
0.010783216 -0.074095167 0.0038621204
0.013289972 -0.073805429 0.0038594189
0.023558667 -0.071050689 0.0038005577
0.025427278 -0.070166707 0.0037781373
0.027903533 -0.069406778 0.0037610044
0.030135849 -0.068807893 0.0037482241
0.032368179 -0.068209067 0.003735414
0.035046976 -0.067490421 0.0037200537
0.037725754 -0.06677179 0.0037046932
0.04028267 -0.066485725 0.0042025261
0.042297784 -0.065605186 0.0043949503
0.044617783 -0.064963274 0.0047780583
0.047134064 -0.064112507 0.0052028811
0.049480855 -0.063546494 0.0056360327
-0.012408637 -0.081812233 0.0060417363
-0.0099187763 -0.081524417 0.006039096
-0.007694988 -0.081307985 0.0060379594
-0.0054820199 -0.080993384 0.0058114319
-0.0027614229 -0.080397733 0.0054664738
-0.0005201493 -0.079841301 0.0053438218
0.0016772263 -0.078976072 0.0048225718
0.0043647923 -0.078288965 0.0047248108
0.0069369362 -0.07784988 0.0045676632
0.0090225823 -0.076988734 0.0043464191
0.011564207 -0.076491341 0.0043541556
0.014179691 -0.075754248 0.0041030999
0.01644792 -0.074871771 0.0038997908
0.018621152 -0.07456217 0.0038956837
0.021478837 -0.07400056 0.0038855835
0.023591375 -0.072955474 0.0038588401
0.02594248 -0.072598696 0.0040356796
0.028505575 -0.071946584 0.0042570084
0.030997353 -0.071395375 0.0044297092
0.03309923 -0.070529833 0.0042083692
0.035588555 -0.069979504 0.0043810867
0.038158074 -0.069155686 0.0046957256
0.040778697 -0.068717532 0.005216815
0.042747173 -0.067856289 0.0055510746
0.044715337 -0.066868149 0.0057258168
0.046571366 -0.06599012 0.0057035419
-0.0041559217 -0.082449339 0.0060815373
-0.002382085 -0.081973493 0.006071365
6.2336381e-05 -0.081634477 0.0060670567
0.002171485 -0.081227094 0.006059757
0.0049512181 -0.080956556 0.0060583511
0.0076814522 -0.080360793 0.0057134135
0.0099012656 -0.079765342 0.005700659
0.012146303 -0.079208933 0.0055780564
0.01493509 -0.078416497 0.0052049742
0.017045435 -0.077646151 0.0049865628
0.019261554 -0.076758474 0.0045202356
0.021934653 -0.076041341 0.004504906
0.024537057 -0.075729273 0.0050373552
0.026655443 -0.075214051 0.0050788308
0.028991517 -0.074644066 0.0055911997
0.031655282 -0.073929518 0.0055759414
0.034067035 -0.072932899 0.0057419818
0.036317803 -0.072066903 0.0058640055
0.038253866 -0.071309917 0.0058456464
0.040189948 -0.070552982 0.0058272579
0.010748673 -0.081301995 0.0060832147
0.012522487 -0.080826081 0.0060730423
0.015183249 -0.080112338 0.0060577984
0.017844001 -0.079398528 0.0060425252
0.01995872 -0.078722693 0.0055268481
0.02219454 -0.078138411 0.0055859485
0.024939341 -0.07749512 0.0060018357
0.027156638 -0.076900318 0.0059891278
0.02893047 -0.076424465 0.005978955
-0.04647002 -0.050679065 0.0020049266
-0.045582779 -0.052553054 0.0020643719
-0.042348556 -0.057445388 0.0022218819
-0.039133102 -0.061245579 0.0023459271
-0.037857819 -0.063440621 0.0024161744
-0.035945766 -0.063407637 0.0024198508
0.055887766 -0.038772106 0.0018932871
0.056991283 -0.037516125 0.0018576384
-0.03518964 -0.065508783 0.0024859472
-0.032536779 -0.065373123 0.0024883314
0.054369096 -0.042059481 0.0019900324
0.056040779 -0.041131042 0.0019657775
-0.031608019 -0.06704399 0.0025416822
-0.029695962 -0.067011006 0.0025453889
0.054401901 -0.043970667 0.0020484976
-0.026811453 -0.067917176 0.0025801812
-0.024167325 -0.067927897 0.0025870427
-0.023009129 -0.069857143 0.0026488663
-0.02116479 -0.069810413 0.0026519708
-0.018966476 -0.069412641 0.0026452346
0.046436906 -0.051867317 0.0022702236
0.048676752 -0.051266477 0.0022573625
-0.018037716 -0.071083508 0.0026985849
-0.015677689 -0.070930369 0.0026997197
-0.013437839 -0.070329525 0.002686888
0.044146851 -0.054785639 0.0023537399
0.046917699 -0.05365834 0.0023261164
0.048709564 -0.053177658 0.0023158574
-0.01442117 -0.072033264 0.0027365321
-0.012847798 -0.071931228 0.0027372884
-0.010515084 -0.071825407 0.0027397955
-0.007909216 -0.071246356 0.002728512
0.04047136 -0.058267616 0.0024510976
0.042573538 -0.057511717 0.0024331943
0.043814719 -0.056410737 0.0024025878
-0.0074284277 -0.073037386 0.0027844347
-0.0050683985 -0.072884239 0.0027855695
-0.0027083517 -0.07273116 0.0027867039
-2.0548172e-05 -0.0720101 0.0027712998
0.036264889 -0.062276047 0.0025632465
0.038504738 -0.061675206 0.0025504152
0.040869113 -0.060464885 0.0025192401
-0.0013316354 -0.074281812 0.0028375117
0.00074430817 -0.073964871 0.0028329194
