# .PCD v0.7 - Point Cloud Data file format
VERSION 0.7
FIELDS x y z
SIZE 4 4 4
TYPE F F F
COUNT 1 1 1
WIDTH 1380
HEIGHT 1
VIEWPOINT 0 0 0 1 0 0 0
POINTS 1380
DATA ascii
0.56798065 -0.19005066 0.036198199
0.56897098 -0.192002 0.036203843
0.57057893 -0.19389823 0.036193557
0.57227534 -0.19571435 0.036179893
0.56981766 -0.19570519 0.036239736
0.57111442 -0.19724274 0.036231559
0.5722841 -0.19903851 0.036230445
0.57349026 -0.20079729 0.036227856
0.57294518 -0.20186724 0.036257505
0.53933179 -0.15776056 0.035404027
0.534495 -0.15539253 0.035235837
0.53631788 -0.15719417 0.035218831
0.53814083 -0.15899581 0.035201855
0.5400362 -0.16074973 0.034994788
0.54188496 -0.16253707 0.034914445
0.54364276 -0.16417271 0.034967914
0.54537058 -0.1660378 0.034739889
0.55074871 -0.17129712 0.034831803
0.55250376 -0.17293012 0.034885332
0.5542075 -0.17481712 0.034729682
0.55584943 -0.17649731 0.035036813
0.55767238 -0.17829891 0.035019804
0.55963576 -0.17988327 0.035246197
0.5614568 -0.18168299 0.035229195
0.56302083 -0.18374281 0.035222523
0.56484187 -0.18554248 0.03520555
0.56666285 -0.18734223 0.035188578
0.56796253 -0.18845528 0.035173848
0.52777112 -0.15178299 0.035261516
0.5296945 -0.15350163 0.034949008
0.53147888 -0.15544516 0.034631416
0.53279132 -0.15720481 0.034304716
0.53471226 -0.1589486 0.034034368
0.53654486 -0.16075981 0.03401728
0.5382995 -0.16230264 0.033882558
0.54006445 -0.16415474 0.033683095
0.54187924 -0.16587597 0.033715092
0.54371381 -0.16768909 0.033697985
0.54554838 -0.1695022 0.03368089
0.54723698 -0.17108762 0.033721585
0.54897714 -0.17296314 0.033600029
0.55078995 -0.17468256 0.033632044
0.55251497 -0.17654309 0.033868425
0.55434763 -0.17835428 0.033851366
0.55610394 -0.1800897 0.034001701
0.55793858 -0.1817892 0.034253825
0.55979586 -0.1832602 0.034626942
0.56152838 -0.18514422 0.03470866
0.56342793 -0.18696128 0.034994937
0.56505674 -0.18886256 0.035097077
0.56668198 -0.19044538 0.035235479
0.56785822 -0.19250745 0.035238303
0.56929296 -0.19456799 0.035234746
0.52055246 -0.14866605 0.035223424
0.52219445 -0.15013635 0.034955695
0.52414113 -0.15183157 0.0345589
0.52603805 -0.15358073 0.03433089
0.52784151 -0.15507236 0.034027465
0.52944547 -0.15673853 0.033719946
0.53150296 -0.15857477 0.03360682
0.53333759 -0.16007686 0.033584945
0.53543514 -0.16194253 0.033562217
0.5364846 -0.16297968 0.033552453
0.54986483 -0.17620346 0.033427745
0.55143899 -0.17775917 0.033413082
0.55327553 -0.17957419 0.033395953
0.55485123 -0.18139076 0.033385243
0.556427 -0.18320727 0.033374537
0.55815601 -0.18516913 0.033544187
0.55983311 -0.18664287 0.033651654
0.5614835 -0.18855317 0.033732891
0.56340903 -0.19056484 0.034066726
0.56503522 -0.19242497 0.034472283
0.56664509 -0.19417718 0.034893248
0.56826365 -0.19597067 0.035031177
0.57022864 -0.19764234 0.035258848
0.57165182 -0.19972648 0.035255954
0.5154283 -0.14654347 0.035066031
0.5168916 -0.1486181 0.03463532
0.51878762 -0.15045248 0.034293428
0.52047747 -0.15179271 0.033954334
0.52260399 -0.15320149 0.033742011
0.52464783 -0.15480666 0.033716626
0.52627188 -0.15599698 0.033695161
0.55906665 -0.18840817 0.033389512
0.5604322 -0.18996516 0.033379953
0.56191969 -0.19196847 0.033374254
0.56334573 -0.19412866 0.033439144
0.56490535 -0.19598186 0.033779483
0.56673241 -0.19768955 0.03403189
0.56860101 -0.19928953 0.034573428
0.57032919 -0.20118316 0.034953188
0.57218641 -0.20256808 0.035286307
0.57400745 -0.20436779 0.035269305
0.50990498 -0.14477803 0.034423616
0.51173759 -0.14658919 0.034406543
0.51363868 -0.14832322 0.034136519
0.51528496 -0.15032282 0.033876773
0.51763976 -0.15161324 0.033838954
0.56381476 -0.19724821 0.033408616
0.56539053 -0.19906473 0.033397906
0.56697041 -0.20109475 0.033544272
0.56877232 -0.20280886 0.033872724
0.57047999 -0.2044466 0.034293734
0.57241631 -0.20605999 0.034933873
0.57397115 -0.20796046 0.03517117
0.57585073 -0.20978788 0.035307087
0.50297344 -0.14126578 0.034039017
0.50480998 -0.1430808 0.034021918
0.50664645 -0.14489585 0.034004789
0.50822061 -0.14645156 0.033990126
0.51005709 -0.1482666 0.033973012
0.51196671 -0.14985767 0.033950701
0.51424843 -0.15137205 0.033918094
0.51556021 -0.15266851 0.033905879
0.56750709 -0.20400783 0.033421721
0.56913412 -0.2063275 0.03350842
0.57070559 -0.20792434 0.033820305
0.5723002 -0.20975764 0.034267895
0.57405865 -0.21166153 0.034807842
0.57556021 -0.21348079 0.035062823
0.57769406 -0.21520798 0.035344884
0.49932292 -0.14128694 0.034128502
0.50115943 -0.14310198 0.034111388
0.50325507 -0.14465469 0.034083929
0.50504041 -0.14662647 0.034070451
0.50666571 -0.14802545 0.034052137
0.50801498 -0.14935893 0.034039572
0.56962681 -0.20947254 0.033453465
0.57081145 -0.21129134 0.033452347
0.57212746 -0.21337794 0.03370218
0.57405525 -0.21533319 0.034247681
0.57614505 -0.21691713 0.034941956
0.57770205 -0.21880721 0.035168827
0.57927728 -0.22037095 0.035385113
0.49593154 -0.14104575 0.034207627
0.49802721 -0.14259848 0.034180168
0.50302488 -0.14961135 0.034165267
0.50563556 -0.15011787 0.03410925
0.57148743 -0.21519956 0.033495519
0.57267082 -0.21695496 0.033618513
0.57419968 -0.21868163 0.03381598
0.57576543 -0.22039145 0.034304049
0.57736838 -0.22219817 0.034709338
0.57920247 -0.22401306 0.035365622
0.57334483 -0.22040498 0.033529695
0.57425833 -0.22246249 0.033538841
0.57568884 -0.2241911 0.034063861
0.57770509 -0.22575495 0.034719743
0.57933533 -0.22755119 0.035064675
0.48470157 -0.13824186 0.03443902
0.48601335 -0.13953832 0.034426779
0.57336891 -0.22431695 0.033588879
0.57403046 -0.22587799 0.033596586
0.57578075 -0.22752522 0.033979166
0.57780838 -0.22920936 0.034555603
0.57988584 -0.23087475 0.034780443
0.48157015 -0.13786879 0.034509793
0.48340583 -0.13955343 0.034490705
0.48523593 -0.14032526 0.03445778
0.57450092 -0.22935271 0.033638168
0.57628667 -0.23095627 0.034085926
0.57773221 -0.2328297 0.034535825
0.57939923 -0.23452182 0.035064798
0.47818115 -0.13801882 0.034594838
0.47975403 -0.13936594 0.03457699
0.48158431 -0.14017254 0.034544602
0.57393217 -0.23109476 0.033678681
0.57468641 -0.23258071 0.033682968
0.57587719 -0.23448941 0.033760007
0.57742423 -0.23624605 0.034339048
0.57934594 -0.23783012 0.035250034
0.58120656 -0.23975535 0.035634138
0.47453064 -0.13803998 0.034684293
0.47636634 -0.13972458 0.034665216
0.47793487 -0.14036754 0.034636725
0.57500738 -0.23630467 0.033732023
0.57610697 -0.23809357 0.033823457
0.57778323 -0.23988359 0.034406669
0.5794071 -0.24177387 0.035242062
0.5810774 -0.24338637 0.035592765
0.57555133 -0.23995286 0.033774473
0.57621288 -0.24151388 0.03378218
0.5776459 -0.24328233 0.034274369
0.57950133 -0.2451039 0.03515726
0.5812512 -0.2469961 0.035743676
0.57557058 -0.24308248 0.033821806
0.57638574 -0.24516422 0.03383372
0.57788819 -0.24698338 0.034467928
0.57973462 -0.24869235 0.035106361
0.58129936 -0.25035655 0.035126954
0.57559633 -0.24725525 0.033884931
0.57654822 -0.24878189 0.034157854
0.57783222 -0.25045818 0.03466529
0.57950705 -0.25205389 0.034863144
0.57561558 -0.25038484 0.03393228
0.57630241 -0.25214082 0.034042373
0.5773865 -0.25384751 0.034634519
0.57952946 -0.25568965 0.034918137
0.57511663 -0.25403905 0.034000289
0.5759787 -0.25574249 0.034291122
0.57772309 -0.25751808 0.034990191
0.57474637 -0.25743169 0.034061182
0.57609475 -0.25939968 0.034725234
0.5777455 -0.26115385 0.035045199
0.57410574 -0.25926107 0.034104764
0.5747335 -0.26116866 0.03511899
0.5734219 -0.26301956 0.036012985
0.57034737 -0.26876178 0.035175353
0.57209074 -0.27053607 0.035326634
0.56883639 -0.26982722 0.035145167
0.57080054 -0.27184209 0.035378076
0.57262969 -0.2735025 0.034858588
0.5666365 -0.27030796 0.035456344
0.56731743 -0.27167639 0.03536056
0.56920779 -0.27342874 0.035357848
0.57076359 -0.27537563 0.034532622
0.57265049 -0.27700451 0.034411397
0.56658918 -0.27350804 0.034906145
0.56768805 -0.27489012 0.034750354
0.56913036 -0.27702487 0.034497663
0.57083642 -0.27884063 0.034483738
0.57267296 -0.28065568 0.034466613
0.56926388 -0.28079578 0.034552008
0.57085896 -0.28249183 0.034538969
0.56773311 -0.28303158 0.034623541
0.56904495 -0.28432798 0.034611311
0.57061911 -0.28588378 0.034596633
0.56644064 -0.28486466 0.03468309
0.56749004 -0.2859019 0.034673326
0.56906426 -0.28745762 0.034658644
0.56540406 -0.28591394 0.03472444
0.56567603 -0.28773805 0.034745682
0.56751251 -0.28955305 0.034728568
0.56428051 -0.28978044 0.034810949
0.56569856 -0.29138923 0.034800924
0.56335014 -0.29114199 0.034854479
0.56414366 -0.29296306 0.034862936
0.56597936 -0.29464769 0.034843847
0.56336945 -0.29427159 0.034901798
0.56425041 -0.29617912 0.034909423
0.56104034 -0.29715398 0.035002738
0.56222177 -0.29845116 0.034993712
0.55937493 -0.29891476 0.035070315
0.56053811 -0.30028659 0.035062868
0.55793381 -0.3008233 0.035134643
0.55872411 -0.30212274 0.035135195
0.52738786 -0.15650322 0.032675236
0.52905434 -0.15780309 0.032654382
0.5308097 -0.15936437 0.03263538
0.53293872 -0.16104257 0.032609046
0.53475845 -0.16274634 0.032590624
0.53657639 -0.16416441 0.032567907
0.53844374 -0.16586791 0.032548368
0.54031986 -0.16767231 0.032446746
0.54196543 -0.1691992 0.032263111
0.54376203 -0.17104942 0.032372598
0.54555732 -0.17289823 0.032482043
0.54740155 -0.17472094 0.032464884
0.54903698 -0.17664962 0.032454375
0.55056638 -0.17836934 0.032443292
0.5524106 -0.18019204 0.032426126
0.55412394 -0.18201548 0.032412123
0.55557543 -0.18384045 0.032404564
0.55710542 -0.18566494 0.032395087
0.5587402 -0.18748884 0.032383032
0.52055717 -0.15287602 0.032786619
0.52222359 -0.15417591 0.032765765
0.52416581 -0.1556987 0.032741603
0.5256393 -0.15723324 0.032478992
0.52756745 -0.15899295 0.032208648
0.52947205 -0.1607773 0.0320227
0.5312072 -0.16235664 0.031978801
0.53302515 -0.16419625 0.031654663
0.53487647 -0.1659214 0.031635817
0.53646392 -0.16749024 0.031621031
0.53857726 -0.16905612 0.031593341
0.54042923 -0.17088646 0.031576101
0.54228127 -0.17271677 0.03155883
0.54408163 -0.17470524 0.031545259
0.54545939 -0.1763805 0.031537198
0.54731137 -0.17821085 0.031519912
0.54916334 -0.18004121 0.031502672
0.55085915 -0.18164214 0.031562682
0.55251598 -0.1835776 0.031674899
0.55426997 -0.18533416 0.031875715
0.55601048 -0.18699616 0.032013439
0.55763894 -0.18894501 0.032074884
0.55968785 -0.19060244 0.032407466
0.56123358 -0.1926602 0.032401159
0.56218463 -0.19401664 0.032398656
0.51701891 -0.15237269 0.032865304
0.51880187 -0.15360247 0.032590467
0.5207414 -0.15534106 0.032257047
0.52264774 -0.15711734 0.032050025
0.52405089 -0.15875134 0.031790659
0.52616507 -0.16044864 0.031764966
0.52827835 -0.16201448 0.031737275
0.5298658 -0.16358334 0.031722471
0.54838586 -0.18188676 0.031549871
0.54944414 -0.18293267 0.031540003
0.55129611 -0.18476303 0.031522747
0.55288678 -0.18685791 0.031515915
0.55443788 -0.18861483 0.031504884
0.55606496 -0.1905216 0.031494264
0.55823946 -0.19220515 0.031824201
0.55983537 -0.19416258 0.031958066
0.56152755 -0.19582871 0.032192312
0.56301367 -0.19779943 0.032436218
0.5647077 -0.19976404 0.032424841
0.56589735 -0.20159051 0.032423712
0.56695282 -0.20289394 0.032417856
0.51613075 -0.15366846 0.031906389
0.51745361 -0.15497588 0.031894065
0.51956695 -0.15654171 0.031866379
0.52088982 -0.15784907 0.031854056
0.55581331 -0.19236414 0.031528573
0.5568732 -0.19367307 0.031522684
0.55846334 -0.19568026 0.031514525
0.56005293 -0.1975998 0.031505037
0.56164038 -0.19916865 0.031490237
0.56333172 -0.20102713 0.031810809
0.56496537 -0.20288926 0.032243989
0.56670225 -0.20472874 0.032452013
0.56812888 -0.20676336 0.032448243
0.56907988 -0.20811979 0.03244574
0.50244266 -0.1453855 0.033114512
0.50402337 -0.14694783 0.033099793
0.50586766 -0.14877048 0.033082616
0.5140304 -0.15420666 0.031965904
0.56059504 -0.20022672 0.031531934
0.56213474 -0.20258492 0.031530358
0.5636344 -0.20465642 0.031525373
0.5651685 -0.20627891 0.031666633
0.56672359 -0.20821112 0.031971119
0.56860876 -0.20995229 0.032401904
0.57015151 -0.21204224 0.032479513
0.49350739 -0.1401991 0.033253461
0.49552619 -0.14202076 0.033231989
0.49745616 -0.14358103 0.033208705
0.49929714 -0.14487994 0.033183627
0.50114143 -0.14670259 0.03316645
0.50324512 -0.14813091 0.03313686
0.50482237 -0.14912578 0.033113562
0.56379747 -0.20783551 0.031569976
0.56533557 -0.20993066 0.031564426
0.56730831 -0.21169093 0.031850971
0.56882083 -0.21342888 0.032148443
0.57021272 -0.21518284 0.032442644
0.57162392 -0.21727191 0.032523431
0.57281357 -0.21909836 0.032522306
0.49045122 -0.14001305 0.033325247
0.49220619 -0.14151618 0.033305354
0.49405047 -0.14333883 0.033288192
0.49596813 -0.14493664 0.033265743
0.49773577 -0.1464604 0.033245862
0.49931329 -0.14749892 0.033223227
0.56593347 -0.2130833 0.031597991
0.56694502 -0.21507631 0.031603731
0.56855559 -0.21701418 0.031656519
0.5704304 -0.21900487 0.032112233
0.57205933 -0.22072215 0.032383643
0.57318211 -0.22223912 0.032561302
0.48721975 -0.13971165 0.033399545
0.4888005 -0.14127399 0.033384841
0.49064478 -0.14309663 0.033367619
0.49239975 -0.14459975 0.033347741
0.49432683 -0.14569443 0.033317417
0.56744194 -0.21891339 0.03165023
0.56861001 -0.22069508 0.031648923
0.57057673 -0.22244802 0.03184206
0.57221329 -0.22387019 0.032509826
0.57320142 -0.22538191 0.032608852
0.48303655 -0.14078352 0.033518091
0.48511153 -0.14141436 0.033477053
0.48697883 -0.1431179 0.033457514
0.48882312 -0.14494056 0.033440307
0.56782925 -0.22201467 0.031688154
0.56910437 -0.22411135 0.031689044
0.57084394 -0.22579324 0.031945094
0.57243764 -0.22748719 0.032472096
0.57357639 -0.22957031 0.032663658
0.4801546 -0.14053829 0.033584718
0.48173216 -0.1415768 0.033562053
0.4832198 -0.14345241 0.033304282
0.48503134 -0.14516167 0.033336192
0.56959742 -0.22731723 0.03172598
0.57072407 -0.22935897 0.031813022
0.57208019 -0.23127665 0.03225942
0.57381558 -0.23297374 0.032709815
0.47386047 -0.13900329 0.03371498
0.47570309 -0.14056408 0.033693817
0.47806683 -0.1417028 0.033653524
0.47991046 -0.14342071 0.033634726
0.48163939 -0.14507225 0.032694262
0.4837423 -0.14649175 0.032587651
0.56972659 -0.23120901 0.031782292
0.5708487 -0.23313126 0.031784259
0.57257956 -0.23483691 0.032393347
0.57411206 -0.23666254 0.032758947
0.5751338 -0.23867573 0.03276474
0.47145075 -0.1389125 0.033772424
0.47281951 -0.14005695 0.033756468
0.47440028 -0.14161927 0.033741735
0.47624454 -0.14344195 0.033724573
0.4780888 -0.14526463 0.033707354
0.47966528 -0.14612854 0.033682093
0.57027519 -0.23488794 0.031825107
0.57116139 -0.23646088 0.031827487
0.57249606 -0.23815404 0.032093611
0.57388443 -0.2400005 0.032715458
0.57522172 -0.24160859 0.032807391
0.46943834 -0.13993368 0.033837158
0.47125804 -0.14163746 0.033818737
0.47271508 -0.14338011 0.033627883
0.47446212 -0.14516753 0.033419311
0.47632313 -0.14695406 0.033276096
0.47691691 -0.14837235 0.032783039
0.57118082 -0.2396169 0.031875238
0.57238829 -0.24170844 0.031940214
0.57416028 -0.24354391 0.032648556
0.57541889 -0.24527419 0.032858603
0.46574789 -0.13983598 0.033925805
0.46759215 -0.14165869 0.033908628
0.46947861 -0.14331943 0.033387706
0.47089422 -0.14473197 0.032985669
0.47295934 -0.14623858 0.032847077
0.47507462 -0.14812002 0.03282417
0.47639745 -0.14942741 0.03281185
0.57120681 -0.24382487 0.031938896
0.57275099 -0.24536793 0.032174863
0.5742566 -0.2470794 0.032557257
0.5752669 -0.24894178 0.032918323
0.46392623 -0.14167991 0.033998419
0.46578828 -0.14342204 0.033729512
0.46769172 -0.14487512 0.032954894
0.46927348 -0.1455235 0.032926165
0.57166284 -0.24671538 0.031971917
0.57259452 -0.24855104 0.031977221
0.57409555 -0.25033078 0.03238456
0.57528627 -0.25208458 0.032965872
0.46052054 -0.14143771 0.034077924
0.46213135 -0.14336199 0.033567771
0.46401119 -0.14502797 0.033047073
0.46612021 -0.14589244 0.033008803
0.5726738 -0.25227031 0.032032073
0.57415557 -0.25402823 0.032715362
0.45882261 -0.14312977 0.033678364
0.46032989 -0.14504924 0.033137314
0.46191517 -0.14626743 0.033117212
0.57162219 -0.25434288 0.032089435
0.57293928 -0.25587285 0.032353487
0.573865 -0.25780782 0.032643419
0.45566356 -0.14372364 0.033231027
0.45717362 -0.14493605 0.033212669
0.45875758 -0.14593506 0.033189241
0.57411206 -0.26011467 0.032116823
0.44981396 -0.14546081 0.03340039
0.45139924 -0.14667904 0.033380292
0.44798249 -0.14696182 0.033468038
0.44961828 -0.14784659 0.033441614
0.44456699 -0.14745504 0.033558983
0.44641125 -0.14802296 0.033522621
0.56687766 -0.2757051 0.033532102
0.56819499 -0.27700704 0.033519812
0.56421709 -0.27595252 0.032600407
0.5656293 -0.27708343 0.033011999
0.56742066 -0.27884489 0.033566818
0.56847781 -0.28041017 0.033564903
0.56436801 -0.27910775 0.032644942
0.56572056 -0.28075048 0.033387318
0.5671798 -0.28225109 0.033624697
0.43329605 -0.15335912 0.033924416
0.56298733 -0.28121984 0.032710925
0.56407726 -0.28269318 0.033081964
0.56562161 -0.28435537 0.033694927
0.56216526 -0.28438073 0.032779288
0.56365585 -0.28600615 0.033518031
0.56485379 -0.28724083 0.033757769
0.56075037 -0.28641787 0.032844968
0.56199682 -0.28784513 0.033236481
0.5635944 -0.28926855 0.033819467
0.55929714 -0.28834245 0.032909848
0.56037158 -0.28970993 0.033154592
0.56189245 -0.29118919 0.033813443
0.5627929 -0.29275283 0.033892278
0.55875194 -0.29131389 0.032968566
0.56006664 -0.29286909 0.033627152
0.56202024 -0.29485258 0.033943243
0.56360102 -0.29641488 0.03392848
0.55722374 -0.293264 0.033035666
0.55838752 -0.2946012 0.033456445
0.56019533 -0.29617268 0.034007952
0.55539662 -0.29546633 0.033113934
0.55678195 -0.29658386 0.033454493
0.55839467 -0.29815751 0.034082267
0.55408996 -0.29678893 0.033166036
0.5550397 -0.29827929 0.033415742
0.55681551 -0.30012089 0.034150828
0.5576123 -0.30194965 0.034159303
0.55321234 -0.300129 0.033488594
0.55499381 -0.30196479 0.034223497
0.5568381 -0.3037875 0.034206294
0.55138493 -0.30197871 0.033561505
0.55317211 -0.30380872 0.03429614
0.5550164 -0.3056314 0.034278922
0.54981858 -0.30356419 0.033623938
0.55161071 -0.30538923 0.034358408
0.55345494 -0.30721194 0.034341201
0.54809552 -0.30550295 0.033445518
0.54978901 -0.30723315 0.034431081
0.54653078 -0.30761608 0.033516057
0.54807037 -0.30916858 0.034252517
0.54496276 -0.30920321 0.033578578
0.54657549 -0.31081301 0.034147374
0.5429076 -0.31098107 0.033655897
0.54465908 -0.31257257 0.03445033
0.54103953 -0.31264508 0.03372696
0.53921026 -0.31449673 0.033799905
0.5355354 -0.31557006 0.033906069
0.53738093 -0.31634837 0.03387288
0.53449011 -0.31662813 0.033947751
0.53575212 -0.31786731 0.034102619
0.53266078 -0.31847978 0.034020707
0.53393853 -0.31973547 0.034133732
0.53056848 -0.32033294 0.034100126
0.53215432 -0.32163882 0.034081332
0.52899891 -0.32165709 0.034158673
0.5305863 -0.32322598 0.034143869
0.52716953 -0.32350877 0.034231659
0.52875698 -0.32507762 0.034216814
0.52560157 -0.32509589 0.034294181
0.52711296 -0.3265149 0.034278959
0.52561778 -0.32772589 0.034333967
0.51962185 -0.32765543 0.034479294
0.52089113 -0.32880533 0.034465872
0.51694196 -0.32803917 0.0345506
0.51826161 -0.32882056 0.034530312
0.51963609 -0.32996982 0.034514308
0.51484615 -0.32931373 0.034621261
0.51643229 -0.3306722 0.034603253
0.51116675 -0.32965064 0.034716252
0.51275092 -0.33069354 0.03469348
0.51433837 -0.3322624 0.034678694
0.50959551 -0.33071178 0.03477082
0.51118296 -0.33228064 0.03475602
0.50791603 -0.3324874 0.034838982
0.53790188 -0.16990061 0.030622326
0.53976166 -0.17173858 0.030604994
0.54135579 -0.17331401 0.030590136
0.54294986 -0.17488945 0.030575281
0.5219872 -0.1583719 0.03083482
0.52357966 -0.15968323 0.030815968
0.52543777 -0.16125715 0.030794641
0.52756 -0.16282949 0.030766841
0.529154 -0.16440496 0.030751988
0.53127623 -0.1659773 0.030724188
0.53313601 -0.1678153 0.030706856
0.53473002 -0.16939075 0.030692
0.5365898 -0.17122874 0.030674668
0.53844953 -0.17306675 0.030657336
0.54004365 -0.17464218 0.03064248
0.5419516 -0.17645758 0.030498561
0.54386091 -0.17827439 0.030354647
0.54539019 -0.17987937 0.03050857
0.54711133 -0.18173224 0.030578205
0.5488143 -0.18383525 0.03056876
0.55040836 -0.18541068 0.030553903
0.55200458 -0.18733825 0.030544363
0.55370665 -0.18930045 0.03053279
0.55519706 -0.19119337 0.030525314
0.51351309 -0.15365253 0.029969221
0.51502669 -0.15455943 0.030517772
0.516541 -0.15576151 0.030785028
0.51881206 -0.15733385 0.030896489
0.52048284 -0.15937401 0.030636769
0.52207863 -0.16095106 0.030621894
0.52401787 -0.16273054 0.030351633
0.52596158 -0.16451329 0.030081276
0.52756071 -0.16609362 0.030066371
0.52948958 -0.16789553 0.029859254
0.53137797 -0.16972694 0.029778585
0.53297865 -0.17130893 0.029763661
0.53484619 -0.17315458 0.029746281
0.53671366 -0.17500025 0.029728856
0.5383144 -0.17658225 0.029713931
0.54018188 -0.17842793 0.02969655
0.54204941 -0.18027356 0.029679123
0.54365015 -0.18185556 0.029664215
0.54551762 -0.18370123 0.029646818
0.54735065 -0.18555932 0.029713787
0.54888141 -0.18716499 0.029867671
0.5506146 -0.1890505 0.030166805
0.55239153 -0.19080344 0.030405965
0.55441308 -0.19251847 0.030564699
0.55614078 -0.19435722 0.03055061
0.55760443 -0.19619754 0.030542977
0.55920184 -0.19830114 0.03053611
0.50979769 -0.15314361 0.030052179
0.51174903 -0.15425211 0.030021466
0.51352614 -0.15577415 0.030001324
0.51531625 -0.15725881 0.030162174
0.5171864 -0.15900043 0.030211356
0.51886189 -0.16104746 0.029951591
0.52046263 -0.16262946 0.029936682
0.52233011 -0.16447514 0.029919285
0.52423227 -0.16629596 0.029789463
0.5259037 -0.16782984 0.029549781
0.52765524 -0.16947323 0.029565468
0.52953255 -0.17130125 0.029120082
0.53136027 -0.17304409 0.029162722
0.5330044 -0.17460905 0.029035339
0.53495705 -0.17641884 0.028792975
0.54379976 -0.18526822 0.029112434
0.54551506 -0.18719418 0.029154558
0.5471859 -0.18898119 0.029575534
0.54900867 -0.19084172 0.029670646
0.55099207 -0.19264543 0.029749796
0.55281293 -0.19411771 0.029985121
0.55442655 -0.19609018 0.03011873
0.55614048 -0.19776776 0.030352617
0.55815208 -0.19936368 0.030577971
0.5600118 -0.20120169 0.030560639
0.56118476 -0.20299084 0.030559335
0.56240946 -0.20462124 0.030554334
0.50828725 -0.1539101 0.030100755
0.5100776 -0.15552887 0.030081797
0.51174563 -0.15757622 0.02982224
0.51334804 -0.15915987 0.029807309
0.5151881 -0.16080914 0.02975183
0.51696903 -0.16268551 0.029379724
0.51883352 -0.16432108 0.029251996
0.52051377 -0.16585004 0.028984189
0.52238905 -0.16770333 0.028966701
0.52426428 -0.16955668 0.028949242
0.55276328 -0.19771543 0.029683979
0.55463082 -0.19956106 0.029666554
0.55649948 -0.2009225 0.029949568
0.55818057 -0.20285912 0.030030437
0.55988342 -0.20462009 0.030365903
0.5616287 -0.2064745 0.030601723
0.56309402 -0.20857891 0.030598085
0.56439894 -0.21036728 0.030593552
0.56535798 -0.2117351 0.030591028
0.50259447 -0.15290457 0.029223979
0.50480556 -0.15413973 0.029633529
0.50648314 -0.15541536 0.02966762
0.5083856 -0.15723193 0.029523853
0.51008892 -0.15925261 0.029137993
0.51169628 -0.1608412 0.029123014
0.51330364 -0.16242975 0.029108034
0.51517886 -0.16428308 0.029090531
0.51705414 -0.16613638 0.029073073
0.5186615 -0.16772494 0.029058093
0.55625445 -0.20485587 0.029707836
0.55812192 -0.20670155 0.029690411
0.55979395 -0.20831133 0.029828083
0.56137151 -0.21025681 0.030132247
0.56313431 -0.2117974 0.030546241
0.56498516 -0.21356203 0.03062804
0.56617451 -0.21569204 0.030631537
0.49931824 -0.15208653 0.029291524
0.50126815 -0.15371116 0.029268695
0.50314337 -0.15556449 0.029251251
0.50475073 -0.15715304 0.029236272
0.50662601 -0.15900636 0.029218771
0.50850123 -0.16085967 0.02920131
0.51010859 -0.16244826 0.029186331
0.51171595 -0.16403681 0.029171351
0.51356626 -0.16576919 0.029152626
0.5157311 -0.16747557 0.029125851
0.55974549 -0.21199635 0.029731665
0.56176728 -0.21370211 0.029890224
0.56342494 -0.21533145 0.030359704
0.56522685 -0.21701662 0.030574884
0.56663251 -0.21859458 0.030664697
0.56752241 -0.22017412 0.030667108
0.49673364 -0.15240589 0.029359479
0.49754062 -0.15373275 0.029360043
0.49941584 -0.15558609 0.029342555
0.5012911 -0.15743938 0.029325096
0.50289845 -0.15902793 0.029310117
0.50481057 -0.16069084 0.029288834
0.50717658 -0.16193257 0.029250044
0.50878227 -0.16325483 0.029231032
0.55970323 -0.21543908 0.029535159
0.56163263 -0.21702443 0.029762376
0.56363624 -0.21871257 0.030006045
0.56518745 -0.2204518 0.030644979
0.56681895 -0.2223288 0.030717194
0.56818348 -0.22460735 0.030718692
0.56914258 -0.22597516 0.030716166
0.49568835 -0.15560764 0.029433962
0.49756357 -0.15746099 0.029416444
0.49970344 -0.15904644 0.029388444
0.50157541 -0.16036719 0.02936288
0.56165552 -0.22073722 0.029818585
0.56348294 -0.2225825 0.029885488
0.56510878 -0.22423352 0.030287879
0.56669235 -0.226078 0.030469749
0.56849217 -0.22756356 0.030756319
0.56951416 -0.22914234 0.030755486
0.56156242 -0.22430992 0.029602572
0.56327903 -0.22603208 0.029859792
0.56525159 -0.22785446 0.029916435
0.56703115 -0.22943997 0.030320451
0.56878924 -0.23097126 0.030801132
0.57006502 -0.23283668 0.030798469
0.48448715 -0.15265432 0.029662328
0.56148607 -0.22765432 0.029240569
0.5633952 -0.22964635 0.029712126
0.56543297 -0.23132379 0.029888051
0.56733245 -0.23277438 0.030330688
0.56886572 -0.23468117 0.030702017
0.57013184 -0.23653381 0.030853331
0.57080173 -0.2381146 0.030861113
0.47807956 -0.14985076 0.029775983
0.47968119 -0.15050727 0.029746911
0.48128775 -0.15196267 0.029729916
0.56360686 -0.23287971 0.029263802
0.56516588 -0.234723 0.029517714
0.56702554 -0.23661458 0.029992543
0.56858462 -0.23829219 0.030645125
0.57022578 -0.23987868 0.030902129
0.4707368 -0.14614981 0.031899579
0.47256097 -0.14723384 0.031649273
0.47435495 -0.14889872 0.031125657
0.47637522 -0.15038177 0.030325938
0.4780927 -0.15198117 0.029808212
0.4794322 -0.15330495 0.029795729
0.56355059 -0.23643956 0.029011741
0.5654515 -0.23852114 0.029497344
0.56718856 -0.24026974 0.030081894
0.56880456 -0.24184041 0.030779229
0.57024962 -0.2437522 0.030960727
0.57111293 -0.245772 0.030970506
0.4675144 -0.14601004 0.031976141
0.46912634 -0.14698108 0.031701509
0.47093719 -0.14875534 0.030661225
0.47275063 -0.15032759 0.029980069
0.47496381 -0.15193272 0.029883884
0.47639918 -0.15369537 0.029875752
0.47810584 -0.15411156 0.029840428
0.56357354 -0.2401678 0.029068127
0.56519026 -0.24186863 0.029588208
0.56720883 -0.24355645 0.030131608
0.56862849 -0.24540609 0.030752769
0.57032895 -0.24709709 0.031009892
0.57169807 -0.24890019 0.031004013
0.46574068 -0.14722767 0.031837959
0.46753389 -0.14865398 0.031015627
0.46907407 -0.1503056 0.030102894
0.47063324 -0.15131423 0.029980155
0.47384578 -0.15413627 0.029944841
0.56172121 -0.24204269 0.029142044
0.56358057 -0.24366061 0.029303238
0.56512856 -0.24532783 0.029895067
0.56695986 -0.24697423 0.030166835
0.56843746 -0.24874307 0.030652463
0.5706141 -0.25052887 0.031055367
0.57168013 -0.25210735 0.031053454
0.46012419 -0.14658102 0.032165322
0.46215382 -0.14742032 0.032128569
0.46401513 -0.14883661 0.031771306
0.46580502 -0.15058511 0.030531546
0.46722695 -0.151618 0.030067986
0.56174093 -0.2452383 0.029190384
0.56357628 -0.24708259 0.029257067
0.56516981 -0.24886844 0.029829033
0.56698245 -0.25064525 0.030222373
0.5689007 -0.25242081 0.030876007
0.570517 -0.25425097 0.031114604
0.57154733 -0.25628108 0.031120455
0.57330346 -0.25843659 0.031110501
0.45456445 -0.14423624 0.032265261
0.45642257 -0.14581013 0.03224393
0.45856786 -0.14723833 0.03221336
0.46040812 -0.14892349 0.032083027
0.46230677 -0.15060073 0.03101909
0.46398163 -0.15211615 0.03015485
0.46584836 -0.1525847 0.030116417
0.56176388 -0.24896652 0.02924674
0.56363916 -0.25081983 0.029229268
0.56522369 -0.25248897 0.029816352
0.56716436 -0.25412187 0.03019407
0.56874037 -0.25588286 0.030766085
0.57039398 -0.2576611 0.031169709
0.57225376 -0.25949913 0.031152379
0.57358539 -0.26134017 0.031147987
0.45218959 -0.14451411 0.032327488
0.45351475 -0.14529878 0.032307122
0.45510882 -0.14687419 0.032292265
0.45690131 -0.14887567 0.032064695
0.45860198 -0.15054759 0.031346038
0.4603914 -0.15221819 0.030710949
0.46212411 -0.15313888 0.030215826
0.55991161 -0.25084141 0.029320629
0.56178689 -0.25269476 0.029303171
0.56355917 -0.25426838 0.029383983
0.56524462 -0.25588879 0.029867772
0.56692046 -0.25757104 0.030252747
0.56852096 -0.25922596 0.030772494
0.57067919 -0.26109293 0.031215172
0.57240695 -0.26293164 0.031201066
0.45194539 -0.14773765 0.032382704
0.4533515 -0.14891736 0.032223471
0.45515099 -0.15044069 0.031595413
0.45677531 -0.15226403 0.030888867
0.458399 -0.15355992 0.030313235
0.5601992 -0.25430182 0.029366504
0.56180656 -0.25589037 0.029351525
0.56364191 -0.25773099 0.029418152
0.5651288 -0.25945583 0.03021409
0.56704777 -0.2612499 0.030382782
0.56897342 -0.26289338 0.031017572
0.57060874 -0.26473358 0.031105787
0.44825324 -0.14849854 0.032484487
0.44984162 -0.14914961 0.032455649
0.4517085 -0.15066138 0.031766217
0.4533236 -0.15253422 0.03092174
0.45496368 -0.15385818 0.030401677
0.456541 -0.15450275 0.030373
0.5590362 -0.25569338 0.02941614
0.56016666 -0.2576575 0.029418543
0.56182951 -0.25961861 0.029407881
0.56358534 -0.26143053 0.02964282
0.56525612 -0.26291889 0.030298114
0.56722975 -0.26472992 0.030354548
0.56883043 -0.26631191 0.030339625
0.56989926 -0.26763177 0.030333698
0.44640779 -0.14898464 0.032536983
0.44812202 -0.15074699 0.032158263
0.44986728 -0.15239483 0.031379137
0.45148057 -0.15426576 0.030492971
0.45281839 -0.15532324 0.03047644
0.56066984 -0.26154274 0.029465623
0.56185246 -0.26334679 0.029464312
0.56377 -0.26495397 0.029908895
0.5653851 -0.26659706 0.030428138
0.56698585 -0.26817903 0.030413214
0.56831974 -0.26949739 0.030400757
0.44270977 -0.14879474 0.032624383
0.4445695 -0.15063274 0.032607049
0.44620889 -0.15234996 0.031792909
0.44802034 -0.15413627 0.030992318
0.4498907 -0.15551774 0.030550919
0.56049353 -0.26502863 0.029523192
0.56187212 -0.2665424 0.029512666
0.56346989 -0.26828104 0.030083764
0.5651412 -0.2700462 0.030486772
0.56647509 -0.27136457 0.030474331
0.44087279 -0.15065415 0.03269764
0.44272232 -0.15237412 0.032261938
0.44451937 -0.15418392 0.031562053
0.4461661 -0.15591168 0.030710377
0.44803405 -0.15668249 0.030614041
0.55894613 -0.26700321 0.029591147
0.56001991 -0.26841733 0.029586511
0.56177753 -0.27021962 0.029821217
0.56356007 -0.27164662 0.030549835
0.56493306 -0.27315417 0.030539323
0.43770418 -0.1506725 0.032775305
0.43929547 -0.15243135 0.032663263
0.44097686 -0.154148 0.032014839
0.44259351 -0.15579736 0.031188114
0.44404298 -0.15714946 0.030718636
0.55852264 -0.27029014 0.029651714
0.56004286 -0.27214554 0.029642895
0.5618313 -0.27356836 0.030371323
0.56346864 -0.27524644 0.030607089
0.5646534 -0.27694452 0.030604068
0.43445241 -0.15148365 0.0328671
0.43586719 -0.15253191 0.032848567
0.43760902 -0.15429744 0.032566246
0.43927473 -0.15614483 0.031597801
0.44085014 -0.15752304 0.030802317
0.44245094 -0.15804638 0.0307712
0.55764496 -0.27189311 0.029697618
0.55857641 -0.27377611 0.029703638
0.56027889 -0.27558094 0.029800806
0.56208384 -0.27738839 0.03096786
0.56339526 -0.27891847 0.031665381
0.43244267 -0.15387228 0.032952674
0.43403021 -0.15439132 0.032921836
0.4358587 -0.15607271 0.03231927
0.43767664 -0.15765935 0.031326521
0.43899459 -0.15886533 0.03086813
0.55756271 -0.27583498 0.02975985
0.55874276 -0.27721298 0.029752104
0.56023329 -0.27886653 0.030574644
0.56193841 -0.2807495 0.031478826
0.43059593 -0.15414709 0.033001963
0.43229362 -0.15615335 0.032718316
0.4339903 -0.15782675 0.031974889
0.43580735 -0.15943815 0.031038053
0.43713903 -0.16020761 0.030933928
0.55634815 -0.27749315 0.029814843
0.55689049 -0.2790879 0.029825948
0.55848122 -0.28078616 0.030438343
0.560251 -0.28248578 0.031296454
0.56157565 -0.28359497 0.031781256
0.42891097 -0.15592821 0.032641582
0.43033782 -0.1577149 0.032162402
0.43212891 -0.15963012 0.031797793
0.43395054 -0.16129133 0.031028364
0.55526692 -0.28103754 0.029895414
0.55676389 -0.28273043 0.030218169
0.5586651 -0.28449905 0.031223025
0.56000543 -0.28589299 0.0318547
0.4268997 -0.15780076 0.032897942
0.42870671 -0.1594765 0.032240245
0.43053335 -0.16119117 0.031693842
0.43209499 -0.16263363 0.03109419
0.5539847 -0.28283307 0.029954135
0.55517352 -0.28418449 0.030045804
0.55659258 -0.28591248 0.030756015
0.55828023 -0.28764468 0.031673498
0.55897093 -0.28942046 0.031933866
0.42525303 -0.15965039 0.032446966
0.42685241 -0.16131499 0.032202475
0.42867872 -0.16304141 0.031684045
0.43050569 -0.16397439 0.031153463
0.55213404 -0.28497425 0.030032042
0.55320561 -0.2860333 0.030022036
0.5547787 -0.28769633 0.030696843
0.55659652 -0.28949991 0.031392843
0.55802882 -0.29079929 0.031977933
0.42328098 -0.16162214 0.032594495
0.42505205 -0.16331753 0.032176971
0.42690781 -0.1647352 0.031453051
0.55054635 -0.28658134 0.030095361
0.55135334 -0.2879082 0.030095939
0.55304807 -0.28964257 0.030497875
0.55493873 -0.29147559 0.031371124
0.55640435 -0.29286876 0.032049224
0.42164576 -0.16311888 0.033107493
0.42366794 -0.16498883 0.032086238
0.4251954 -0.16640192 0.031320237
0.55012065 -0.28951317 0.030150559
0.55149019 -0.29112703 0.030241814
0.55292016 -0.2928344 0.030951442
0.55462193 -0.29453987 0.031868171
0.41998214 -0.1649168 0.033068396
0.42182142 -0.16685793 0.032159902
0.42339802 -0.16854283 0.031396829
0.54952073 -0.2929787 0.030218137
0.55115694 -0.29465997 0.030766614
0.55292386 -0.29635638 0.031854026
0.41820598 -0.16663939 0.032676831
0.41997486 -0.16872701 0.032233566
0.42168123 -0.1701887 0.031463906
0.54766846 -0.29485363 0.030292042
0.54933506 -0.29654977 0.030777454
0.55150878 -0.29846242 0.031920739
0.41655558 -0.16853526 0.032564219
0.4183709 -0.17029433 0.032129925
0.41995546 -0.17159867 0.031527571
0.54608077 -0.29646069 0.03035536
0.54775065 -0.29815346 0.030840652
0.54969621 -0.30016965 0.031924412
0.414711 -0.17040241 0.032637808
0.41648638 -0.17210966 0.031932689
0.41778299 -0.17336893 0.031607673
0.54449636 -0.29860035 0.030426739
0.54590219 -0.30002451 0.030914363
0.54793012 -0.30182242 0.031922154
0.41286632 -0.17226958 0.032711349
0.4146277 -0.17396969 0.031943992
0.54264408 -0.30047524 0.030500613
0.54405373 -0.30189556 0.030988071
0.54625303 -0.30378237 0.032130361
0.41128522 -0.17387 0.032774415
0.41301647 -0.17554289 0.031840649
0.54105639 -0.30208233 0.030563932
0.54246938 -0.30349928 0.031051252
0.54443896 -0.30549112 0.032134082
0.54587573 -0.30692756 0.032521099
0.40944058 -0.17573716 0.032848004
0.41119131 -0.17744803 0.032081053
0.41249076 -0.17872578 0.031818736
0.53920412 -0.30395722 0.030637806
0.54069197 -0.3054361 0.030936662
0.5425989 -0.30735365 0.032207444
0.54403877 -0.30878696 0.032594375
0.40759599 -0.1776043 0.03292156
0.40934095 -0.17932098 0.032154851
0.41063845 -0.18060067 0.031892613
0.53735185 -0.30583212 0.030711681
0.53886557 -0.3073307 0.0309477
0.54075891 -0.30921614 0.032280855
0.54272664 -0.3101151 0.032646701
0.40601486 -0.17920473 0.032984611
0.4077549 -0.18092638 0.032218106
0.40905079 -0.18220775 0.031955931
0.53576416 -0.30743918 0.030775014
0.53727949 -0.30893612 0.031010974
0.53918171 -0.31081256 0.032343768
0.40417024 -0.18107188 0.0330582
0.40593848 -0.18282908 0.032479119
0.40719852 -0.18408266 0.032029819
0.53391188 -0.30931407 0.030848887
0.53540695 -0.31078562 0.031147458
0.53734165 -0.31267506 0.032417163
0.40232557 -0.18293904 0.033131756
0.40411666 -0.18472262 0.032698411
0.40561411 -0.18622233 0.032101214
0.53205961 -0.31118897 0.030922761
0.53346229 -0.31255546 0.031492945
0.53542256 -0.31438026 0.032604381
0.4007445 -0.18453944 0.033194821
0.40256462 -0.18634987 0.032927953
0.40402645 -0.18782941 0.032164533
0.53020406 -0.31253123 0.030988574
0.53182131 -0.31409487 0.031723294
0.53360605 -0.31581241 0.032706354
0.40071806 -0.18821895 0.033001572
0.40232119 -0.18999393 0.032239236
0.52701557 -0.31361499 0.031082965
0.52834785 -0.3145192 0.031141195
0.53006655 -0.31604609 0.031920999
0.53185594 -0.317653 0.032827243
0.39879507 -0.18989512 0.03322418
0.40038428 -0.19172268 0.032494817
0.40139669 -0.19317082 0.032310337
0.52510774 -0.31511736 0.031152522
0.52668631 -0.31644645 0.031384386
0.52849746 -0.31815946 0.032366741
0.53010988 -0.31956404 0.033099156
0.39707482 -0.1914562 0.033390105
0.39880466 -0.19322552 0.032707933
0.40018213 -0.19482899 0.03236533
0.52357233 -0.31656432 0.03121214
0.52502143 -0.31795138 0.03169813
0.52691799 -0.31975821 0.032429744
0.52827048 -0.32102731 0.033166423
0.3952302 -0.19332331 0.033463679
0.39701805 -0.1951292 0.033072423
0.39863631 -0.19693935 0.032435324
0.52172005 -0.31843922 0.031286016
0.52317297 -0.31982243 0.031771854
0.5249961 -0.32151884 0.032753699
0.52643347 -0.32288671 0.033239696
0.39523494 -0.19702788 0.03343679
0.39690489 -0.19878933 0.032505874
0.39771184 -0.20011625 0.032506436
0.51986778 -0.32031411 0.031359889
0.52132452 -0.32169345 0.031845562
0.52315527 -0.32338211 0.032827124
0.52473098 -0.32514149 0.033315703
0.52619714 -0.32737797 0.033314075
0.39366779 -0.1986104 0.033036925
0.39531726 -0.20039642 0.032569207
0.3963888 -0.20145544 0.032559186
0.51801223 -0.32165644 0.0314257
0.51972353 -0.32332528 0.032178942
0.52162999 -0.32490441 0.033114955
0.52355331 -0.32686508 0.033370793
0.52488172 -0.3281779 0.033358414
0.39212221 -0.20041491 0.032647505
0.39372957 -0.20200348 0.032632526
0.39480275 -0.20332882 0.032626551
0.51508671 -0.32220599 0.031505521
0.51649773 -0.32357377 0.031920698
0.51813978 -0.3252635 0.03297833
0.51994264 -0.32656312 0.033454362
0.52224123 -0.32819319 0.033423137
0.39039081 -0.2022649 0.03271804
0.39187726 -0.20387836 0.032706369
0.3932178 -0.20537972 0.032696605
0.51109946 -0.32329434 0.031619515
0.51294142 -0.32367101 0.031580284
0.5145371 -0.32528976 0.032441441
0.51639962 -0.32705575 0.033448379
0.51801312 -0.32768947 0.033518679
0.39002499 -0.20575325 0.032780275
0.39163154 -0.20720866 0.03276328
0.50972086 -0.32426101 0.031667948
0.51102722 -0.32528013 0.031985108
0.51286578 -0.32689664 0.03309872
0.51463711 -0.32834285 0.0336111
0.38923442 -0.20708939 0.032819971
0.390306 -0.20814845 0.032809995
0.50770265 -0.32550141 0.031827115
0.50905323 -0.32702351 0.032869816
0.51105171 -0.32844532 0.033575185
0.51326996 -0.32930157 0.033659138
0.38766316 -0.21135949 0.032923598
0.38953841 -0.21321277 0.032906123
0.39088115 -0.2150692 0.032901686
0.50392872 -0.32626525 0.031840008
0.50564361 -0.32696557 0.032008909
0.50727183 -0.32869247 0.033462837
0.5087859 -0.33011988 0.033781137
0.38647324 -0.21269791 0.032973103
0.38821536 -0.21455202 0.032958858
0.39009058 -0.21640536 0.032941412
0.39063296 -0.21800005 0.032952517
0.50207067 -0.3272081 0.031899806
0.5037933 -0.32863033 0.03254639
0.50567532 -0.33025092 0.033608984
0.50721139 -0.33171365 0.033843931
0.38662767 -0.21615908 0.033022176
0.38850296 -0.21801238 0.033004731
0.38968295 -0.21939038 0.032996956
0.49909046 -0.32751828 0.031977292
0.50049245 -0.32900417 0.032432623
0.50232381 -0.33070549 0.033322625
0.50404602 -0.33226019 0.033929568
0.50580019 -0.33409882 0.033914834
0.38665062 -0.21988732 0.033078577
0.38825801 -0.22147582 0.033063598
0.38889074 -0.22333637 0.033076573
0.49568638 -0.32817715 0.03207048
0.49702254 -0.32896835 0.032049932
0.49847952 -0.33056122 0.032885209
0.50040185 -0.33239651 0.033770543
0.50220901 -0.33411959 0.034002844
0.3849315 -0.22176141 0.033149224
0.38640577 -0.22335073 0.0331375
0.38806731 -0.22509879 0.033123627
0.49364042 -0.3294825 0.032140411
0.49508518 -0.33064085 0.032567423
0.49683079 -0.33219683 0.033187754
0.49877477 -0.33387536 0.034082968
0.38499585 -0.22494663 0.033863246
0.38671523 -0.22680929 0.033266142
0.3880344 -0.22840121 0.033174876
0.48983648 -0.32945383 0.032232825
0.49159515 -0.33072746 0.032423727
0.4931424 -0.33236381 0.033273961
0.49498114 -0.33378851 0.033840813
0.38484102 -0.22868603 0.033257175
0.38644838 -0.23027459 0.033242241
0.48611224 -0.330008 0.032332234
0.48801833 -0.33089587 0.032453168
0.48975468 -0.3323254 0.033125199
0.49154919 -0.33406851 0.033989519
0.49324098 -0.33575618 0.034246832
0.3846353 -0.23233947 0.033318073
0.38604665 -0.23421833 0.033312295
0.3870137 -0.23559754 0.033309747
0.48291719 -0.33002651 0.032410532
0.4845202 -0.3309049 0.032384843
0.48627958 -0.33241138 0.03311519
0.48829359 -0.33417016 0.033843227
0.4900724 -0.33577451 0.034324497
0.38363132 -0.23401926 0.033368252
0.3848837 -0.23560984 0.03336196
0.38643298 -0.2373763 0.033351116
0.47918853 -0.32987055 0.032499216
0.48108223 -0.33077955 0.032466874
0.4825871 -0.33250955 0.03304011
0.48436925 -0.33407536 0.033624962
0.48637566 -0.33579594 0.034415089
0.38335627 -0.23739409 0.033426523
0.38490665 -0.23933809 0.033418313
0.386457 -0.24128206 0.03341021
0.38741463 -0.24305193 0.033413835
0.47546214 -0.33006966 0.032593239
0.47730628 -0.33080143 0.03255941
0.47915828 -0.33235961 0.032913104
0.48072523 -0.33429703 0.033629794
0.48255825 -0.33566394 0.034324382
0.38358575 -0.24103239 0.033476509
0.3849296 -0.24306631 0.033474758
0.38640383 -0.24465564 0.03346305
0.38707933 -0.24624957 0.033470884
0.47199976 -0.32991216 0.0326754
0.47391385 -0.33108002 0.032746553
0.47580585 -0.33259034 0.033169072
0.47750273 -0.33420417 0.033607021
0.47929853 -0.33575568 0.033950672
0.38440692 -0.2446672 0.033511966
0.38508242 -0.24626115 0.033519845
0.38661155 -0.24811646 0.033510841
0.38816893 -0.25023794 0.033505216
0.46853629 -0.32957715 0.032754838
0.47038087 -0.3308284 0.032805871
0.47220784 -0.33272943 0.033526219
0.47405741 -0.33448932 0.033695519
0.38407165 -0.24786487 0.033569004
0.38516223 -0.24995099 0.033574238
0.3868475 -0.25184348 0.033561997
0.38812998 -0.25352269 0.033556372
0.38900051 -0.25555936 0.033566214
0.46480983 -0.32977629 0.032848909
0.46667963 -0.33074188 0.032817975
0.46841073 -0.33237946 0.033267595
0.47034529 -0.3345108 0.033786487
0.38535023 -0.25371632 0.033627201
0.38660258 -0.25530693 0.033620924
0.38835666 -0.25713676 0.033606023
0.38955596 -0.2592845 0.03360955
0.46143553 -0.32949984 0.032927085
0.46326816 -0.33114165 0.03300745
0.46516752 -0.33256811 0.033610404
0.38689017 -0.25876731 0.033666737
0.38876545 -0.26062059 0.033649296
0.38994807 -0.26242471 0.033647951
0.45574522 -0.32787579 0.033041198
0.45788264 -0.32906181 0.033007152
0.45958778 -0.33092695 0.03326074
0.46159038 -0.33276224 0.033848502
0.38731086 -0.26222691 0.033709344
0.38852048 -0.2640841 0.033708159
0.3902058 -0.26597655 0.033695914
0.39177865 -0.26813594 0.033690527
0.3928166 -0.26991805 0.033692393
0.44880402 -0.32489783 0.033165198
0.45040789 -0.32590932 0.033141509
0.45254758 -0.32746819 0.033113033
0.45442215 -0.32921505 0.033093963
0.45618254 -0.3309468 0.033344228
0.39041871 -0.26966563 0.033747099
0.39202607 -0.27125418 0.03373212
0.39327842 -0.27284479 0.033725843
0.44293231 -0.32262376 0.033273835
0.44524968 -0.3242082 0.033241488
0.44721204 -0.3257947 0.033217806
0.4488194 -0.32738325 0.033202827
0.45069462 -0.3292366 0.033185307
0.39284289 -0.27417886 0.033756856
0.39874965 -0.28213403 0.033734143
0.43705833 -0.31999466 0.033377118
0.43844876 -0.32094532 0.033357695
0.44027144 -0.32227704 0.033433586
0.44180444 -0.32405487 0.033631057
0.44368529 -0.32566652 0.033730727
0.44539005 -0.32738796 0.033650402
0.44744208 -0.328563 0.033254467
0.39769119 -0.28320539 0.03377635
0.39956647 -0.28505868 0.033758905
0.40090919 -0.28691512 0.033754468
0.40225193 -0.28877148 0.033750013
0.43305963 -0.31921887 0.033462912
0.4351975 -0.32048482 0.033430047
0.43707147 -0.32212508 0.033409365
0.43884844 -0.32372195 0.033936009
0.40011534 -0.28771865 0.033786103
0.4018786 -0.289915 0.033776641
0.40356436 -0.29188356 0.033765551
0.40459114 -0.29390666 0.033771373
0.40629002 -0.29593849 0.033760913
0.40793753 -0.29786924 0.033750199
0.40950802 -0.29964823 0.03373903
0.41138324 -0.30150157 0.033721555
0.41309842 -0.30330256 0.033707179
0.42022538 -0.31050494 0.033643179
0.42209899 -0.31209192 0.033621691
0.42397422 -0.31394526 0.033604216
0.42830819 -0.3172757 0.033549249
0.43012592 -0.31843692 0.033522621
0.43173328 -0.3200255 0.033507645
0.43360722 -0.32166576 0.033486918
0.43601298 -0.32319647 0.033451542
0.40710682 -0.2988632 0.033785645
0.40871418 -0.30045176 0.033770666
0.5098359 -0.16381314 0.028213406
0.51091188 -0.16487655 0.028203379
0.5130626 -0.16678944 0.028180111
0.50474465 -0.16197073 0.02830958
0.5066219 -0.16289578 0.028277881
0.50823504 -0.16435724 0.028260831
0.50984907 -0.16595232 0.028245781
0.494818 -0.15641257 0.028467063
0.49670103 -0.15827352 0.028449528
0.49884975 -0.15986556 0.028421376
0.50072944 -0.16119176 0.028395757
0.50287813 -0.16278377 0.02836759
0.49563819 -0.15934935 0.028491914
0.48355955 -0.15166435 0.028669452
0.48249671 -0.15274018 0.028711841
0.48357275 -0.15380353 0.028701827
0.48018956 -0.15435795 0.02879291
0.48171279 -0.1556862 0.028775986
0.47286543 -0.15172626 0.028931541
0.47407427 -0.15265521 0.028916214
0.47555542 -0.15438479 0.028906465
0.47796988 -0.15570787 0.028867712
0.47985286 -0.15756887 0.02885019
0.46965721 -0.15174483 0.029010164
0.47126547 -0.15240404 0.028980967
0.47274494 -0.15386626 0.02896717
0.47449264 -0.15546057 0.028948868
0.47636446 -0.15744609 0.028856505
0.467792 -0.1527718 0.029071413
0.4694047 -0.15415299 0.029053124
0.47105548 -0.15563716 0.028618637
0.47271276 -0.1573265 0.02840521
0.46405107 -0.15311433 0.02916798
0.46566176 -0.15417466 0.02914485
0.46757898 -0.15591753 0.028680013
0.46924129 -0.15736933 0.028105855
0.46218535 -0.15406108 0.029228006
0.4640055 -0.15596172 0.028998226
0.4657473 -0.15768015 0.028279301
0.46737373 -0.15925971 0.028180361
0.45867541 -0.15471175 0.029323656
0.46032459 -0.15581003 0.029300164
0.46205488 -0.15752515 0.028569546
0.46388546 -0.15954843 0.028269937
0.45524102 -0.15521553 0.029415213
0.45685065 -0.15609756 0.029389402
0.45849031 -0.15751956 0.028704133
0.46039394 -0.15930012 0.028351411
0.46228465 -0.16116878 0.028333779
0.55907559 -0.25792426 0.028448842
0.45364323 -0.15624984 0.029470025
0.45526484 -0.1576252 0.029117953
0.45690238 -0.15905187 0.028432868
0.45879313 -0.16092047 0.028415253
0.55828345 -0.25953332 0.028492775
0.55980992 -0.26139635 0.028483965
0.56071103 -0.26299557 0.028486382
0.4495813 -0.1565675 0.029574096
0.4515141 -0.15771702 0.029481908
0.45341259 -0.15936211 0.028606202
0.45503479 -0.16094223 0.028507374
0.45692223 -0.1622739 0.02848161
0.55830652 -0.26327693 0.028549397
0.55949914 -0.26468349 0.028541764
0.44777134 -0.15788832 0.029638458
0.44965571 -0.15946901 0.029033041
0.45154575 -0.16109669 0.028594917
0.45316276 -0.16211665 0.028570972
0.55644655 -0.26515958 0.028623603
0.55792683 -0.26675549 0.028611822
0.44456449 -0.15812969 0.029720452
0.4464424 -0.15955088 0.029362841
0.4483251 -0.16124962 0.028675897
0.44967234 -0.16204733 0.028655158
0.55646634 -0.26836839 0.028672142
0.55772382 -0.26996562 0.02866582
0.44162637 -0.15859242 0.029799264
0.44291285 -0.15952286 0.029682022
0.44456795 -0.16128714 0.028830752
0.44645256 -0.1623345 0.028738156
0.55487204 -0.26998213 0.028735731
0.55663341 -0.27181947 0.02872077
0.55756867 -0.27371025 0.02872682
0.43958488 -0.15994132 0.029869735
0.44097173 -0.1611838 0.029400103
0.44259048 -0.16294757 0.028841864
0.5548951 -0.27372575 0.028792338
0.55656427 -0.27558792 0.028780043
0.43747345 -0.16150452 0.029945172
0.43921214 -0.16294047 0.029035408
0.44075018 -0.16428547 0.028907243
0.5530352 -0.27560842 0.028866529
0.55491817 -0.27746937 0.028848991
0.5557285 -0.27880171 0.028849535
0.43574697 -0.16303113 0.029933689
0.43734002 -0.16480386 0.028998453
0.4387784 -0.16586959 0.028979577
0.55136913 -0.27749181 0.028469123
0.55332398 -0.27908304 0.028912565
0.55450886 -0.28046674 0.028904773
0.43256605 -0.16345827 0.030094845
0.43378773 -0.16472746 0.029817633
0.43547165 -0.16655999 0.029070895
0.55135173 -0.28096482 0.028912496
0.55295664 -0.28258586 0.028975043
0.43024588 -0.16503802 0.030175641
0.43200505 -0.16652179 0.02948842
0.43360159 -0.16804764 0.029139269
0.5494374 -0.28264487 0.028811768
0.55121809 -0.2844435 0.029045895
0.42696646 -0.1658974 0.030268842
0.42870644 -0.1666252 0.030055577
0.43060333 -0.16819477 0.029314796
0.43173063 -0.16940105 0.029205624
0.54784149 -0.28426024 0.028875431
0.54962385 -0.28605717 0.029109469
0.55016845 -0.28765851 0.029120628
0.42563793 -0.16724214 0.030321833
0.426961 -0.16851813 0.030058917
0.42878264 -0.17022364 0.029290222
0.43039668 -0.17075132 0.029258823
0.54612857 -0.28624514 0.028572444
0.54776394 -0.28793985 0.029183645
