# .PCD v0.7 - Point Cloud Data file format
VERSION 0.7
FIELDS x y z
SIZE 4 4 4
TYPE F F F
COUNT 1 1 1
WIDTH 1354
HEIGHT 1
VIEWPOINT 0 0 0 1 0 0 0
POINTS 1354
DATA ascii
0.47622359 0.0065989774 0.033045687
0.47388086 0.0054824166 0.033810876
0.47233784 0.0044399928 0.033842221
0.57929265 0.051263355 0.035977803
0.57693291 0.050347067 0.035423711
0.57513893 0.050145522 0.03540178
0.47740066 0.0095916428 0.033078253
0.47546417 0.0088974815 0.033570129
0.47327837 0.0078288727 0.033979021
0.57594174 0.052753456 0.035507657
0.57387787 0.051905066 0.035458885
0.57155114 0.051695071 0.035432436
0.47989374 0.014475513 0.033284403
0.47862187 0.01337843 0.033232465
0.47666636 0.011990819 0.033430826
0.47449252 0.011181593 0.03401652
0.47205442 0.01025519 0.03406189
0.47050473 0.0088903476 0.033997506
0.57288671 0.054311447 0.035542861
0.57047892 0.053321674 0.035485968
0.56820607 0.05265528 0.035442509
0.48179585 0.017669376 0.03342139
0.48002875 0.016317651 0.03335578
0.47776735 0.015246056 0.03356991
0.47567382 0.014150377 0.034139182
0.47366545 0.013163317 0.034185641
0.47205636 0.011929985 0.034125809
0.56948769 0.055728056 0.035569899
0.5670799 0.054738298 0.035513043
0.56505883 0.054220088 0.035477225
0.56308049 0.054032125 0.035454348
0.48305055 0.021133039 0.033563528
0.48155987 0.019770969 0.033583097
0.47945887 0.018579978 0.0338379
0.47702748 0.017505363 0.03431135
0.47534081 0.015948892 0.034305271
0.56605554 0.056993239 0.036480524
0.56400877 0.056202635 0.036100544
0.56168514 0.055407539 0.035495743
0.55916893 0.054903015 0.035456523
0.4845278 0.024219185 0.033693027
0.48284838 0.022925854 0.033630338
0.48068205 0.021918774 0.034325287
0.4784843 0.020877182 0.034518264
0.56314963 0.058183677 0.036614083
0.56075424 0.057225853 0.036391754
0.55835891 0.056360312 0.035616893
0.55643082 0.055854343 0.035471097
0.55463684 0.055652872 0.035449166
0.48825097 0.028362606 0.033880688
0.48663515 0.027124092 0.033820618
0.48443234 0.02597487 0.033842653
0.48220903 0.024964355 0.034370236
0.4801085 0.023886621 0.034646012
0.5573433 0.058489762 0.036579672
0.55530667 0.05787845 0.035872996
0.55293447 0.057135269 0.035492186
0.5503152 0.056770563 0.035457503
0.54834449 0.056282014 0.035423212
0.49365351 0.033799417 0.034131054
0.49217647 0.032991223 0.034088492
0.49000469 0.031428456 0.034011602
0.48788691 0.030222878 0.033948772
0.48568067 0.02930107 0.034429856
0.48359749 0.028097257 0.034751017
0.55425268 0.059514791 0.03559348
0.55170107 0.059091151 0.035557061
0.5494979 0.058364108 0.035511825
0.54709011 0.057374299 0.035454921
0.54465002 0.0568536 0.035415687
0.54302329 0.05650647 0.035389528
0.49968326 0.038690068 0.034365557
0.49830741 0.038124412 0.034333043
0.49638522 0.036932249 0.034272291
0.49414143 0.035591926 0.034286715
0.49158621 0.034526654 0.034688294
0.48932537 0.033415243 0.034782588
0.4871892 0.032561734 0.035033252
0.48545641 0.031582519 0.034982134
0.54638213 0.059093192 0.035514921
0.54381537 0.058210291 0.035460852
0.54176891 0.05759874 0.035421252
0.53944212 0.056802996 0.035372406
0.53681177 0.055962928 0.03531947
0.53485721 0.055239849 0.035276368
0.53219855 0.05446849 0.035225816
0.53047878 0.05376146 0.035185192
0.50640094 0.043863446 0.034616306
0.50423598 0.042772457 0.034557499
0.50237733 0.041635174 0.034499347
0.50001508 0.040714934 0.034645595
0.49772435 0.039792962 0.034892485
0.49540251 0.038776759 0.035148006
0.49305272 0.037774239 0.035278752
0.49081334 0.036682069 0.035219293
0.48839831 0.035460599 0.035153471
0.54064953 0.059014454 0.035466388
0.53832299 0.058643132 0.035517149
0.53599232 0.057966493 0.035723016
0.5339309 0.057119064 0.035674315
0.53149706 0.056176603 0.035347953
0.52908278 0.055197522 0.035228893
0.52704293 0.054468587 0.035184875
0.52446961 0.053703129 0.035135228
0.52206182 0.05271332 0.035078369
0.51999801 0.051864922 0.035029594
0.51759022 0.050875098 0.034972705
0.5151825 0.049885288 0.034915831
0.51277471 0.04889553 0.034858927
0.51035476 0.047739923 0.034795627
0.50832242 0.046739489 0.034818284
0.50603974 0.045601502 0.034879915
0.5037415 0.044673406 0.035126507
0.50143397 0.043756366 0.035306707
0.49908605 0.042916931 0.035422795
0.4970395 0.041986488 0.035471108
0.52837479 0.056916416 0.035288878
0.52606815 0.056169197 0.035242051
0.52134597 0.054633334 0.036035504
0.51896447 0.053630047 0.036089532
0.51656675 0.052644432 0.036032856
0.51447183 0.051831745 0.035762839
0.51205134 0.050861001 0.035595365
0.50971615 0.049828224 0.035870999
0.58564162 -0.069486842 0.029919196
0.58356917 -0.07033883 0.029870227
0.58104974 -0.071576372 0.029803002
0.57922107 -0.072529934 0.029752091
0.57680321 -0.073523834 0.029694974
0.57440567 -0.074812211 0.029626772
0.57245517 -0.075714983 0.029576838
0.57003725 -0.076708883 0.029519703
0.56761944 -0.077702843 0.029462587
0.56556439 -0.078316972 0.029422829
0.56298691 -0.079203531 0.029368533
0.56042689 -0.079852283 0.029323462
0.55833006 -0.081037186 0.029261587
0.55626166 -0.081833623 0.029214777
0.55386418 -0.082550116 0.029168408
0.59383011 -0.062891409 0.030235888
0.59173322 -0.064076312 0.030174028
0.58945549 -0.065414354 0.029904744
0.58737963 -0.06685251 0.029783331
0.58530504 -0.067705363 0.029734321
0.58288467 -0.068700343 0.029677128
0.5804643 -0.069695316 0.029619949
0.57840413 -0.070608377 0.029401939
0.57598883 -0.071634337 0.029260226
0.57356596 -0.072630391 0.029203
0.57148921 -0.073484108 0.029153932
0.56907552 -0.074551441 0.028906392
0.56664342 -0.075476162 0.029039409
0.56456667 -0.076329872 0.028990343
0.5621438 -0.077325866 0.028933119
0.55972087 -0.078321919 0.028875865
0.55764413 -0.079175629 0.028826796
0.55522263 -0.080121435 0.028896589
0.55280775 -0.08096607 0.029220469
0.55073529 -0.081818014 0.0291715
0.54831749 -0.082811974 0.029114367
0.54589963 -0.083805919 0.029057249
0.54429448 -0.084223501 0.029028572
0.59464693 -0.060523905 0.029732248
0.59321856 -0.061379958 0.029621519
0.59116417 -0.062289272 0.029403739
0.58876038 -0.063342445 0.029177684
0.58633244 -0.064340547 0.029120311
0.5842514 -0.065196082 0.029071145
0.58182347 -0.066194117 0.0290138
0.57940286 -0.067220911 0.028871987
0.57732838 -0.06810537 0.028738335
0.5748865 -0.06904579 0.028849898
0.57245857 -0.070043884 0.028792521
0.57037753 -0.070899367 0.028743356
0.56794959 -0.071897462 0.028686011
0.56552166 -0.072895557 0.028628621
0.56344056 -0.07375104 0.028579455
0.56111056 -0.074789949 0.028521333
0.55866033 -0.075739607 0.028157672
0.55650365 -0.076602712 0.028415568
0.55407572 -0.077600807 0.028358208
0.55164975 -0.07856556 0.028385509
0.54958165 -0.079253927 0.028759828
0.54716915 -0.080149718 0.028956659
0.54474878 -0.081144698 0.02889948
0.54256767 -0.082188472 0.029092509
0.54002798 -0.08278846 0.02904946
0.53840256 -0.083254859 0.02901876
0.59675616 -0.056735229 0.030243857
0.59454834 -0.057984095 0.02961003
0.5922699 -0.059062354 0.029368849
0.5901888 -0.059917841 0.029319685
0.58789277 -0.060969025 0.02917036
0.58551335 -0.061981525 0.028603379
0.58332396 -0.062987775 0.028480873
0.58127087 -0.063957401 0.02809399
0.57883286 -0.064959638 0.028036356
0.57639486 -0.065961868 0.027978782
0.57430518 -0.066820897 0.027929407
0.57185191 -0.067735158 0.028125213
0.5694117 -0.06870687 0.028152181
0.56732941 -0.069604784 0.027990164
0.56490141 -0.070686623 0.027707204
0.56246346 -0.071688853 0.02764963
0.56037372 -0.072547935 0.027600255
0.55793571 -0.073550165 0.027542621
0.5554986 -0.074510105 0.027597865
0.55307508 -0.075205564 0.028358255
0.55064827 -0.076172337 0.028385486
0.54856718 -0.07702782 0.028336322
0.54613924 -0.078025922 0.028278962
0.54371136 -0.079024017 0.028221585
0.54164326 -0.080232859 0.028587949
0.53918725 -0.081011072 0.028538754
0.53697854 -0.081914663 0.028512735
0.60203922 -0.051443458 0.03073792
0.60061693 -0.052566383 0.030683782
0.59859127 -0.054039102 0.030478057
0.59637558 -0.055103261 0.029916462
0.5937283 -0.055933423 0.029422855
0.59131694 -0.056735817 0.029116455
0.58927751 -0.057694852 0.028730096
0.58723295 -0.058657307 0.028343543
0.58479494 -0.059659533 0.028285924
0.58235693 -0.06066177 0.028228335
0.58026719 -0.0615208 0.02817896
0.57782924 -0.06252303 0.028121356
0.57539123 -0.063525259 0.028063767
0.57330149 -0.064384297 0.028014392
0.57086349 -0.065386526 0.027956773
0.56842548 -0.066388756 0.027899183
0.5663358 -0.067247786 0.027849808
0.56389779 -0.068250015 0.027792204
0.56145978 -0.069252253 0.027734615
0.55937004 -0.070111282 0.027685242
0.55693203 -0.071113512 0.027627623
0.55449408 -0.072115742 0.027570033
0.55225116 -0.073075727 0.027730053
0.54979122 -0.073750503 0.027970698
0.54755741 -0.074694693 0.028167158
0.54528254 -0.07594604 0.028351529
0.54285461 -0.076944143 0.028294154
0.54077351 -0.077799626 0.028244989
0.53834563 -0.078797713 0.028187644
0.5359177 -0.079795808 0.028130252
0.53370374 -0.080494381 0.029009804
0.5315761 -0.080409765 0.029073125
0.6036039 -0.048378237 0.030867312
0.60203934 -0.049727827 0.03080339
0.59973526 -0.050477508 0.030222764
0.59747684 -0.05171847 0.029767431
0.59532166 -0.052654147 0.029304054
0.59299052 -0.053671964 0.028846372
0.59040868 -0.054502584 0.028527323
0.588319 -0.055361617 0.028477963
0.58622926 -0.056220703 0.028428588
0.58379126 -0.05722288 0.028370954
0.58135325 -0.058225114 0.02831338
0.57938647 -0.05913543 0.028263032
0.57724893 -0.060455095 0.028195696
0.57442033 -0.061563637 0.028130934
0.57244122 -0.062295761 0.028087286
0.55140066 -0.070538178 0.027605703
0.54896265 -0.071540408 0.027548069
0.5465247 -0.072542638 0.02749051
0.54452002 -0.073757909 0.027736118
0.54206675 -0.074558817 0.027778435
0.53975564 -0.075467303 0.028075702
0.53734607 -0.076371148 0.028272312
0.53491819 -0.077369235 0.028214935
0.53262293 -0.078275859 0.028495714
0.53038698 -0.079157129 0.029011417
0.52820349 -0.07957603 0.029078159
0.60583502 -0.04536204 0.031000126
0.60357302 -0.046593703 0.030792203
0.60128772 -0.047538392 0.030213807
0.59880716 -0.048324093 0.029663719
0.59647733 -0.049489409 0.028989198
0.59442443 -0.050409593 0.028715396
0.59198642 -0.051411826 0.028657777
0.58954841 -0.052414056 0.028600203
0.58764017 -0.053431112 0.028546235
0.58568037 -0.054492574 0.028490156
0.58321774 -0.055830542 0.028419545
0.58077973 -0.056832775 0.028361926
0.54357469 -0.071313187 0.027513999
0.54113668 -0.072315417 0.027456366
0.53869873 -0.073317647 0.027398791
0.53641343 -0.074206501 0.027710639
0.53401971 -0.074853756 0.028203681
0.53183758 -0.075798213 0.028250409
0.5294928 -0.076971307 0.028520647
0.52732766 -0.0778872 0.028953692
0.52517849 -0.078823663 0.029082861
0.60850096 -0.040982939 0.031188399
0.60706645 -0.042272318 0.031127799
0.60498029 -0.043373857 0.030711778
0.60279053 -0.044452392 0.030260107
0.60023123 -0.045044146 0.029694077
0.59793752 -0.046095386 0.028970424
0.59551048 -0.047113959 0.028849754
0.59368706 -0.048372291 0.028787285
0.5914129 -0.050019488 0.028706368
0.53769505 -0.070880987 0.027483776
0.53560531 -0.071740083 0.027434401
0.5331862 -0.072672248 0.027567262
0.53092027 -0.073507205 0.028148588
0.52855295 -0.074716374 0.028265633
0.52612561 -0.075842686 0.028303448
0.52393484 -0.07679116 0.028837821
0.52158386 -0.077545077 0.029103108
0.51930457 -0.077582933 0.029083569
0.61008602 -0.037640259 0.03132854
0.60841691 -0.038957976 0.031181613
0.60621876 -0.039844297 0.030546539
0.60385972 -0.040921524 0.030153157
0.60150772 -0.042019323 0.029675603
0.59949183 -0.042758569 0.029147662
0.59706587 -0.043699369 0.028992418
0.59516239 -0.044950537 0.028929558
0.53216362 -0.070305645 0.027461827
0.52972466 -0.071438789 0.027499303
0.52767354 -0.072536826 0.027769962
0.52524567 -0.07321243 0.028010793
0.52304441 -0.074143447 0.028243762
0.52065444 -0.075045347 0.028440557
0.51848823 -0.075971901 0.029038504
0.51655501 -0.076627642 0.029098196
0.61136627 -0.033884622 0.031482026
0.6098398 -0.035546564 0.031323094
0.60776699 -0.036749981 0.030772269
0.60528809 -0.037496865 0.03029516
0.60300171 -0.038665917 0.029481785
0.60061228 -0.039725333 0.029172249
0.59870398 -0.040742338 0.029118281
0.59706789 -0.04199639 0.029057425
0.52886534 -0.069219358 0.027477117
0.52677566 -0.070078447 0.027427742
0.52468592 -0.07093747 0.027378367
0.52232087 -0.071756035 0.027828712
0.51961696 -0.07271497 0.028271068
0.51727492 -0.073887534 0.028480653
0.51505733 -0.074724883 0.029033832
0.51265419 -0.075001888 0.02912927
0.61224014 -0.031103374 0.031595092
0.61102104 -0.032311015 0.031539332
0.60888553 -0.033511337 0.030726012
0.60640043 -0.034391947 0.030149527
0.60445142 -0.035248008 0.02954036
0.60204661 -0.036286496 0.029314809
0.59997731 -0.037442368 0.029254314
0.52577204 -0.067641839 0.027512727
0.5236823 -0.068500869 0.027463352
0.52124429 -0.069503091 0.027405735
0.51872164 -0.070523664 0.027990099
0.51633233 -0.07163319 0.028286247
0.51396519 -0.072507255 0.028567694
0.51166558 -0.07325542 0.029188052
0.50986409 -0.073457763 0.029166033
0.6121242 -0.029421054 0.031658363
0.61027557 -0.030057618 0.031035617
0.60797954 -0.031173522 0.030370202
0.60567707 -0.032078691 0.029604321
0.60348094 -0.032847665 0.029457472
0.60123962 -0.033931822 0.029398287
0.59958827 -0.035261922 0.029334418
0.52480108 -0.065680146 0.027579892
0.52267861 -0.066064268 0.027548397
0.5202406 -0.067066498 0.027490765
0.51767313 -0.068389028 0.027670089
0.51545388 -0.069101155 0.028161455
0.51325172 -0.070062116 0.028321765
0.51101196 -0.070930213 0.02873788
0.50879073 -0.071914315 0.029216412
0.50707394 -0.071913682 0.029202813
0.61315489 -0.025479708 0.031816956
0.61173999 -0.026902562 0.031626333
0.60936928 -0.027712243 0.030700937
0.60711306 -0.028866643 0.029804977
0.6047104 -0.029900044 0.02957971
0.60294843 -0.030895749 0.029527735
0.60151428 -0.03202796 0.029473115
0.52154517 -0.064630739 0.027594067
0.51938033 -0.064977959 0.027563643
0.51694232 -0.065980196 0.027506068
0.5147599 -0.066931166 0.027552515
0.51242888 -0.067562982 0.028137652
0.50980341 -0.068745494 0.028421607
0.50769335 -0.06970828 0.029041693
0.50543612 -0.070351221 0.029249433
0.61289668 -0.023452185 0.031892274
0.61084592 -0.024563454 0.031249803
0.60844129 -0.025484366 0.030323673
0.60614473 -0.02646121 0.029722285
0.60432541 -0.027778979 0.029657591
0.51820451 -0.063507557 0.027610429
0.5159145 -0.063664556 0.027586257
0.51384896 -0.064402625 0.027541678
0.51143491 -0.065361992 0.027611004
0.50898844 -0.066440135 0.028349154
0.50653964 -0.067551866 0.028364252
0.50431335 -0.068226114 0.029238209
0.50260431 -0.068907067 0.02928205
0.61376476 -0.02058685 0.032008514
0.61185825 -0.021365767 0.031496644
0.60962981 -0.022376876 0.030739821
0.60768467 -0.023116207 0.029962266
0.60561228 -0.023932643 0.029814586
0.51438183 -0.061741412 0.027647473
0.51284534 -0.061966017 0.027626723
0.51040733 -0.062968254 0.027569089
0.50778919 -0.064218849 0.028101016
0.50554013 -0.065125287 0.028448921
0.50331527 -0.06600295 0.02886479
0.50121707 -0.066939995 0.029346097
0.61445588 -0.016871609 0.032155767
0.61337781 -0.018141763 0.032015346
0.6111111 -0.018976396 0.031202096
0.60878432 -0.020057853 0.030098826
0.60671878 -0.020933848 0.029937813
0.6056124 -0.022202732 0.029880594
0.51184839 -0.060204968 0.027686005
0.509547 -0.060879726 0.027641954
0.50710899 -0.0618819 0.02758438
0.50478023 -0.062719204 0.02803432
0.50232708 -0.063785464 0.028656481
0.5001716 -0.064594895 0.029212859
0.49820793 -0.064901568 0.029399991
0.61396432 -0.014893873 0.032227341
0.61249024 -0.015788136 0.031625509
0.61009789 -0.016669916 0.030594386
0.6079073 -0.017707109 0.030070364
0.60651404 -0.019118551 0.030005433
0.50820184 -0.05926187 0.027693035
0.50610536 -0.059445295 0.027669365
0.50395876 -0.060403846 0.027692728
0.50179678 -0.061151948 0.028262919
0.49925604 -0.062362537 0.028838024
0.49699718 -0.06313882 0.029457657
0.49533114 -0.063016325 0.029449098
0.61358869 -0.012586884 0.032221392
0.61159426 -0.013421179 0.031263966
0.60931265 -0.01424393 0.030444618
0.60745674 -0.015474789 0.03015196
0.50465095 -0.0573975 0.027735975
0.503012 -0.057867788 0.027705034
0.50065744 -0.058974743 0.028072968
0.49817538 -0.060045917 0.028584301
0.49610567 -0.060964599 0.029333394
0.49442917 -0.061611019 0.029495571
0.61451745 -0.009176679 0.032449905
0.61304951 -0.010171285 0.032066718
0.61064333 -0.011019872 0.031125629
0.60849994 -0.012135088 0.030287698
0.50199366 -0.055960484 0.027769729
0.49971372 -0.056781475 0.02772028
0.49713507 -0.057670105 0.02849989
0.49488297 -0.05878057 0.028970346
0.49293709 -0.059467021 0.029565539
0.61400968 -0.0069634402 0.032530326
0.61208838 -0.0078831334 0.031812809
0.60968876 -0.0087451516 0.030881383
0.60792017 -0.0096130278 0.030379349
0.50088161 -0.054673258 0.027810017
0.49866906 -0.054443099 0.027801197
0.49614066 -0.055391155 0.028212007
0.49389121 -0.05653758 0.028684134
0.49169067 -0.057279147 0.029472329
0.48972398 -0.057248071 0.029624704
0.61308831 -0.004633327 0.032411769
0.61102569 -0.0056370385 0.031699464
0.60889286 -0.0063265711 0.030712623
0.60731399 -0.0070537068 0.030472199
0.49720004 -0.052232709 0.027873926
0.49514043 -0.053151123 0.028004484
0.49301171 -0.053971589 0.028632104
0.49076295 -0.055067021 0.029215809
0.48891142 -0.05576564 0.029674824
0.61360377 -0.0010753162 0.032751795
0.61226183 -0.002399113 0.032423779
0.60986793 -0.0032242332 0.031416964
0.60794932 -0.0041468795 0.030588184
0.49594462 -0.050597303 0.02792635
0.4944081 -0.050821915 0.0279056
0.49210599 -0.051682431 0.02835485
0.48954791 -0.05281752 0.029149028
0.48755029 -0.053539835 0.029748946
0.61289281 0.00065075234 0.032812022
0.6112771 -9.4275922e-05 0.032270394
0.60905796 -0.0011587981 0.031266972
0.60743731 -0.0019151457 0.030669278
0.4935478 -0.048733387 0.027978463
0.4912475 -0.049598254 0.028427573
0.48887292 -0.050558176 0.028972551
0.4866465 -0.051202893 0.029648988
0.48480764 -0.051195785 0.029816624
0.61203963 0.0027220305 0.032884281
0.61025751 0.0021344088 0.03227587
0.60810369 0.0012579393 0.031129211
0.60672867 0.00039851107 0.030751921
0.49246219 -0.046493284 0.028055314
0.49033636 -0.047298796 0.028150655
0.48807198 -0.047890544 0.02882494
0.48583639 -0.049002163 0.029408131
0.48423886 -0.049814977 0.029864801
0.61117971 0.0054632984 0.032982063
0.609478 0.0045889374 0.032363359
0.60714793 0.0036799815 0.030991677
0.60577828 0.0031012539 0.030847508
0.49119222 -0.044003386 0.028140265
0.48945081 -0.044719271 0.02809912
0.48723093 -0.045528248 0.028801154
0.48468319 -0.046692848 0.029558588
0.48302004 -0.04724817 0.029953072
0.61061782 0.0078897383 0.033070203
0.60849905 0.0068114754 0.032178257
0.60631114 0.0057624727 0.030953318
0.604918 0.0051897299 0.030920371
0.49033195 -0.04191485 0.028213128
0.48859051 -0.04263074 0.028171983
0.48637331 -0.043446168 0.028873838
0.48377332 -0.044440113 0.029399047
0.48190272 -0.045123983 0.030025266
0.61170256 0.010965409 0.032751407
0.60987163 0.010241477 0.032570243
0.60757434 0.0092256535 0.031908643
0.60530746 0.0081990715 0.031038303
0.60434449 0.006582126 0.03096896
0.4891234 -0.039969511 0.028277749
0.48758686 -0.040194079 0.02825697
0.48533565 -0.04104647 0.028832063
0.48292062 -0.042136393 0.029432515
0.48104954 -0.043052718 0.030097526
0.61062413 0.013372548 0.032612305
0.60896438 0.012656026 0.032238182
0.60663772 0.011647303 0.03168083
0.60430384 0.010635681 0.031123348
0.48653197 -0.037880339 0.028336918
0.48427194 -0.038663849 0.028706046
0.48183417 -0.039776273 0.029799908
0.48034677 -0.0407582 0.030179508
0.60810769 0.0147359 0.03231075
0.60577917 0.013731528 0.03175357
0.6034435 0.01272421 0.031196212
0.48537463 -0.035812147 0.028406648
0.4833622 -0.036615863 0.028610151
0.48097453 -0.037479427 0.029809251
0.47916043 -0.03797619 0.030276246
0.60710818 0.017162465 0.032395434
0.60477763 0.016163114 0.031838369
0.60243988 0.015160814 0.031281196
0.48437098 -0.033375546 0.028491663
0.48235959 -0.034181744 0.02869511
0.4799782 -0.035163008 0.029589504
0.47820568 -0.036148556 0.030338414
0.60610867 0.019588973 0.032480072
0.603728 0.018592652 0.032172978
0.6014362 0.017597418 0.031366244
0.48336729 -0.030938946 0.028576678
0.48135695 -0.031747624 0.028780039
0.47888085 -0.032814883 0.029778155
0.47721031 -0.033732079 0.030422723
0.60688186 0.022369254 0.033092692
0.60525191 0.021668911 0.032552641
0.60282397 0.020670809 0.032495297
0.60057592 0.019685954 0.031439107
0.59889603 0.019809399 0.031430461
0.48250702 -0.028850414 0.028649557
0.48052415 -0.02964554 0.028937027
0.47809735 -0.030577432 0.029966405
0.47621495 -0.031315599 0.030507045
0.6059258 0.024428591 0.033664081
0.60419875 0.023718618 0.033623274
0.60177106 0.02299745 0.032642446
0.5995723 0.022122547 0.031524092
0.59817916 0.021549858 0.03149119
0.48157167 -0.026250014 0.028741356
0.47957551 -0.02718184 0.029190302
0.47726339 -0.028259873 0.030060122
0.47570717 -0.029102311 0.030587468
0.60273606 0.025700781 0.03368729
0.60087758 0.025435332 0.033046566
0.59851044 0.024547651 0.031941816
0.59682715 0.023843314 0.031567991
0.4819544 -0.022565119 0.028884992
0.48084801 -0.023834005 0.028827801
0.47862792 -0.024722161 0.02944345
0.47618419 -0.025918406 0.030426811
0.47471181 -0.026685838 0.030671775
0.60180157 0.02757718 0.03375148
0.59984839 0.027572293 0.033402208
0.59759539 0.026619278 0.03234718
0.59596694 0.025931798 0.031640854
0.48138088 -0.021172782 0.028933553
0.47976738 -0.021757422 0.029080402
0.47766638 -0.022756776 0.029744308
0.47535953 -0.02360069 0.030544456
0.5989573 0.029906392 0.033817779
0.59684527 0.029161207 0.033022024
0.59461498 0.028225251 0.03171761
0.59279168 0.028696831 0.031721149
0.48051381 -0.018408656 0.02903218
0.47875869 -0.019396173 0.029355813
0.47629115 -0.020396102 0.030236322
0.47429773 -0.021366222 0.030871486
0.59745401 0.032248594 0.033895224
0.59580612 0.031569395 0.033355832
0.59355998 0.030641943 0.032135043
0.59197235 0.030191626 0.031771686
0.47983012 -0.015995568 0.029118834
0.47782496 -0.016934358 0.029650841
0.47538507 -0.017933872 0.030594129
0.47379816 -0.018584475 0.030973665
0.59489948 0.03362127 0.033760525
0.59263575 0.032697521 0.032650929
0.59071255 0.032014165 0.031831242
0.48031622 -0.012655824 0.029250126
0.47907469 -0.013899806 0.029292885
0.4769755 -0.014922564 0.029955912
0.47473058 -0.015851701 0.030903405
0.59350902 0.035764389 0.033998065
0.59156758 0.035089746 0.033206332
0.58925825 0.034156449 0.03227669
0.5870012 0.034185663 0.031884611
0.47973594 -0.010587881 0.02932445
0.47798198 -0.011587506 0.029647646
0.47587067 -0.012473471 0.030556148
0.47438776 -0.013397191 0.031176295
0.59209067 0.037915275 0.034068886
0.59049565 0.03746774 0.033816736
0.58819747 0.03655152 0.032818355
0.5859189 0.035741992 0.031935439
0.47940284 -0.0080655115 0.029418055
0.47713119 -0.0091061424 0.03019429
0.47506166 -0.0099887969 0.031200528
0.4738597 -0.010889539 0.031267803
0.58956128 0.039398331 0.034105394
0.58729827 0.038602225 0.033223085
0.58498126 0.037687592 0.03222461
0.58336842 0.037237439 0.031972237
0.48056269 -0.0046852715 0.029556237
0.47883493 -0.005945174 0.029661221
0.47641367 -0.0069844034 0.030686539
0.47448397 -0.0079225842 0.031385973
0.58848792 0.040941846 0.034155771
0.58632803 0.040928237 0.033871248
0.58397412 0.040176772 0.033012997
0.58193827 0.039406199 0.032043643
0.58009076 0.039756808 0.032042354
0.48168561 -0.0013472885 0.029692531
0.48002094 -0.0024930909 0.029778544
0.47781718 -0.0035805944 0.030443916
0.4756338 -0.0046678074 0.031233381
0.47422582 -0.0058950568 0.031461306
0.58519125 0.043192692 0.034215499
0.58318436 0.042560481 0.033675086
0.58086574 0.041674811 0.032566473
0.57867956 0.040985715 0.032078065
0.48255038 0.0016945973 0.029815482
0.48130065 0.00077378191 0.029770443
0.47907934 -0.00018214993 0.030383479
0.47663531 -0.0012505744 0.031324077
0.47497782 -0.0024911501 0.031597167
0.58428931 0.044597991 0.034261957
0.58221877 0.044487216 0.034150325
0.57994431 0.043684475 0.03330303
0.57759023 0.042780131 0.032388069
0.57562482 0.042194769 0.032099936
0.48229009 0.0037390217 0.029891444
0.48022598 0.0027431715 0.030254025
0.47805583 0.0017914195 0.031006645
0.47635967 0.00093619153 0.031738929
0.58094382 0.046182938 0.034295887
0.57887954 0.046020828 0.03410653
0.57653213 0.045132399 0.033157472
0.57416445 0.044232525 0.032249477
0.57238805 0.044120409 0.032147713
0.48332936 0.0077132266 0.030051347
0.48189449 0.006303614 0.030048667
0.47943178 0.0052051805 0.030988012
0.47738665 0.0041821525 0.031779982
0.47621763 0.0029970277 0.03181643
0.57742226 0.048031867 0.034338474
0.57559174 0.047433734 0.03402818
0.57320976 0.046679787 0.033252683
0.57107043 0.045806192 0.032312796
0.56954056 0.045595519 0.032181408
0.48441541 0.011008866 0.03018572
0.48304775 0.0098022874 0.030240025
0.48090386 0.0086692479 0.030902516
0.47858113 0.0075541772 0.031736162
0.47729474 0.0062654428 0.031949706
0.57480818 0.049312018 0.034366578
0.5725413 0.048675515 0.034074105
0.57017398 0.04780703 0.033049185
0.56798595 0.047172479 0.032229256
0.48597264 0.013819814 0.030305345
0.48427662 0.012748536 0.030362219
0.4822582 0.011597686 0.030918904
0.47987735 0.010582794 0.031884786
0.47812802 0.0096354745 0.032084927
0.57146722 0.050450236 0.034383491
0.56912506 0.050099328 0.034101307
0.56674647 0.049247846 0.03298663
0.5646171 0.048320211 0.032246307
0.48789865 0.017053779 0.030444041
0.48588723 0.015968874 0.030617639
0.48345488 0.014985882 0.031205565
0.48130113 0.01399624 0.032026336
0.47946918 0.012507897 0.032205191
0.5678463 0.051832251 0.034407482
0.56582856 0.051502749 0.034105938
0.56353217 0.050454274 0.033011947
0.56140965 0.049678288 0.032363612
0.55884677 0.049475677 0.032244582
0.49060324 0.021693181 0.030642573
0.48931545 0.020582274 0.030589975
0.48737341 0.019232087 0.030737447
0.48505396 0.018233541 0.031467255
0.4827159 0.017209437 0.032299168
0.48103386 0.016145002 0.0323564
0.56492066 0.053051583 0.034430787
0.56271124 0.052646019 0.034124821
0.56036794 0.051843345 0.033458956
0.5579434 0.050944172 0.032710411
0.55552506 0.05024223 0.032247458
0.55347931 0.049982697 0.032221295
0.49461898 0.025786117 0.030830644
0.49285117 0.024710566 0.030775573
0.49072629 0.023371849 0.030707622
0.48851317 0.022457857 0.031201001
0.48631293 0.021334697 0.031595595
0.48411378 0.020310432 0.032448821
0.48257822 0.018932715 0.032475043
0.56130427 0.053986892 0.034437761
0.55945194 0.053662777 0.034410693
0.55703998 0.053175032 0.033839196
0.55458605 0.052435741 0.033170499
0.55242074 0.051530354 0.032605547
0.55013996 0.050509475 0.032214914
0.54774302 0.050066821 0.032178968
0.49793813 0.029592771 0.031002257
0.49652034 0.02868434 0.030956335
0.49449581 0.027630929 0.031082008
0.49224609 0.026691832 0.031313393
0.48986262 0.025805119 0.031794384
0.48766795 0.024657264 0.032200173
0.4855684 0.023567483 0.032575585
0.48416325 0.022275414 0.032615185
0.55602181 0.055044688 0.034436181
0.55380505 0.05461292 0.034311146
0.55144417 0.053791493 0.033796057
0.54913855 0.052562229 0.032973319
0.54669237 0.051614299 0.032563228
0.54457676 0.051027738 0.032290574
0.54237258 0.050533868 0.032154173
0.53989661 0.049934655 0.03211163
0.53788882 0.049272113 0.032070406
0.50445336 0.035527334 0.031280436
0.50233907 0.034332514 0.031218071
0.5004378 0.033164252 0.031158403
0.49831223 0.031750187 0.03127519
0.49597642 0.030724887 0.031613652
0.49367335 0.029895995 0.03190925
0.4912352 0.029022187 0.032484006
0.48913333 0.027924616 0.032870218
0.48715022 0.026463501 0.03279873
0.55261528 0.055797212 0.034437861
0.55058646 0.055539817 0.034411926
0.54818267 0.054796658 0.034281094
0.54574209 0.053875081 0.033753935
0.54364008 0.053089745 0.033262521
0.54126358 0.052233241 0.032938015
0.53889954 0.051180884 0.03245151
0.53662795 0.050362095 0.032213192
0.53458023 0.049641885 0.032058258
0.53194761 0.048864923 0.032007709
0.52962029 0.047989577 0.03195582
0.52727652 0.047351718 0.031912852
0.52483857 0.046349496 0.031855263
0.51682794 0.04305651 0.031666011
0.5154348 0.042483762 0.031633075
0.51334512 0.041624732 0.031583704
0.51105046 0.040274438 0.031513993
0.50863296 0.038975365 0.031445224
0.50666612 0.03806505 0.031394877
0.50426519 0.037048385 0.031503756
0.50189233 0.036023807 0.031723857
0.49955148 0.034994144 0.032055169
0.49721843 0.033966925 0.03238662
0.49490809 0.032939393 0.032773852
0.49269733 0.031872232 0.033049162
0.49088898 0.030624252 0.032987181
0.54692644 0.055880569 0.03439587
0.54489756 0.055623181 0.034369934
0.54267633 0.055234358 0.034337468
0.54026091 0.054408401 0.033974044
0.53782529 0.053441823 0.033730183
0.5357334 0.052613273 0.033515155
0.53334332 0.0517243 0.033395551
0.53097177 0.050652258 0.03291494
0.52873778 0.049846433 0.032770261
0.52639312 0.049031526 0.032541778
0.52405286 0.047890872 0.032193761
0.52172065 0.047055013 0.032107618
0.51950228 0.046225958 0.032116108
0.51718193 0.045079805 0.032146323
0.51480597 0.044165485 0.032192685
0.51249462 0.043318041 0.032213449
0.51020771 0.04213281 0.032221515
0.50792277 0.041273721 0.032361273
0.50558186 0.040234078 0.03272
0.50321257 0.039213076 0.032912381
0.50117469 0.038344525 0.033029869
0.49893618 0.036990058 0.033127196
0.49670014 0.035636988 0.033224601
0.4947699 0.034439795 0.0331636
0.53888071 0.05580245 0.034329005
0.53715366 0.055092461 0.034288198
0.53483742 0.054342158 0.034241188
0.53252119 0.053591773 0.03419416
0.52991033 0.052821256 0.034144022
0.52788872 0.052091084 0.034100123
0.5254274 0.051144272 0.03371086
0.52299011 0.050164416 0.033542894
0.52088076 0.049341366 0.033272363
0.5184834 0.048322745 0.033381261
0.51608843 0.047305144 0.0334902
0.51401311 0.046452031 0.033441164
0.51159191 0.04545673 0.033383992
0.50923669 0.04442358 0.033659432
0.50734419 0.043414891 0.033605911
0.50505692 0.042243965 0.033543073
0.50295836 0.04103528 0.033480294
0.52662909 0.053187974 0.034131974
0.52490205 0.052478001 0.034091167
0.52248418 0.051484078 0.034034051
0.52041179 0.050632097 0.033985078
0.51799393 0.049638137 0.033927947
0.51557606 0.048644252 0.033870827
0.51350361 0.047792301 0.033821858
0.51143116 0.046940304 0.03377289
0.57867658 -0.058244992 0.02729059
0.57642186 -0.059621453 0.027220175
0.57418895 -0.060469355 0.027170079
0.58910686 -0.05130069 0.0276384
0.5869838 -0.052500416 0.02757578
0.58501589 -0.053566232 0.027519461
0.58275002 -0.054731272 0.027457021
0.58030194 -0.055737644 0.02739919
0.59303629 -0.047437415 0.027817022
0.59097904 -0.048896194 0.027745016
0.58853096 -0.049902558 0.027687198
0.58643258 -0.050765142 0.027637612
0.58433425 -0.051627774 0.027588041
0.58188617 -0.052634139 0.027530195
0.59577256 -0.043655939 0.027983045
0.59433246 -0.044792879 0.027928229
0.59256327 -0.045792691 0.027876051
0.59011519 -0.046799004 0.027818188
0.58766711 -0.047805373 0.027760372
0.58556879 -0.048668001 0.027710786
0.59809333 -0.039759211 0.028150193
0.59594023 -0.041368287 0.028071675
0.5936538 -0.042483363 0.028010968
0.59155548 -0.043345995 0.027961398
0.58910739 -0.044352368 0.027903551
0.59904391 -0.037202232 0.028255289
0.59754217 -0.03802399 0.028212024
0.59509408 -0.039030351 0.028154178
0.5926618 -0.04006236 0.027984276
0.60023731 -0.033646315 0.028400468
0.59865326 -0.035012767 0.028335739
0.59667832 -0.035926796 0.028285198
0.59407967 -0.036820881 0.028015984
0.60363197 -0.028981172 0.028605435
0.60219193 -0.030118108 0.028550621
0.60011822 -0.031570051 0.028478751
0.59776884 -0.032617528 0.02842013
0.59567052 -0.03348016 0.028370544
0.52157223 -0.063622937 0.026632003
0.51969796 -0.06348516 0.026622379
0.6034264 -0.027158339 0.028673364
0.60165721 -0.028158097 0.028621186
0.59920913 -0.029164463 0.028563324
0.59679681 -0.030213024 0.028281767
0.51847404 -0.062251274 0.026659738
0.51659858 -0.062579453 0.026632324
0.60439348 -0.024376631 0.028787196
0.60289174 -0.025198385 0.02874393
0.60079336 -0.026060961 0.02869436
0.59823406 -0.026985031 0.028209856
0.51755881 -0.060277432 0.026727812
0.51529175 -0.061127659 0.026677366
0.6056487 -0.019977914 0.028965011
0.60423326 -0.021704158 0.028887913
0.60188389 -0.022751689 0.028829277
0.59978557 -0.023614271 0.028779708
0.51410288 -0.058837108 0.026755325
0.51164806 -0.059165128 0.02672331
0.50982398 -0.059369963 0.026701011
0.60688323 -0.017018143 0.029087756
0.60564882 -0.01824086 0.029031303
0.60332417 -0.019298628 0.028972486
0.60087609 -0.020304998 0.028914653
0.59889132 -0.021270491 0.028194863
0.510647 -0.057396784 0.026782855
0.50860012 -0.058136068 0.026738387
0.50686181 -0.058135401 0.026724614
0.60667765 -0.015195369 0.029155685
0.60490841 -0.01619513 0.029103506
0.60250604 -0.017236017 0.028794518
0.60016894 -0.01833454 0.02809467
0.59808207 -0.019216746 0.027933253
0.50978321 -0.055299651 0.026856029
0.50768483 -0.05616229 0.026806459
0.50563794 -0.056901556 0.026761975
0.6071099 -0.011611737 0.029295877
0.60599899 -0.012885856 0.029238438
0.60364187 -0.013826691 0.02891697
0.60141098 -0.015054215 0.028195525
0.59917712 -0.015893836 0.028068773
0.50667703 -0.053715594 0.026891805
0.50422895 -0.054721955 0.026833959
0.5020895 -0.054988384 0.026806809
0.60661227 -0.0096092876 0.029368348
0.60499114 -0.010439162 0.029323816
0.60263526 -0.011503593 0.028764112
0.60027218 -0.012570983 0.028204245
0.59816515 -0.013437105 0.028154464
0.50322115 -0.052275263 0.026919335
0.50077307 -0.053281635 0.026861504
0.49908623 -0.05315768 0.026852833
0.60610223 -0.0074279411 0.029447529
0.60412735 -0.0083420258 0.029396988
0.60181594 -0.0094279526 0.02858663
0.59940475 -0.010465194 0.028277714
0.59729779 -0.011331315 0.028227933
0.5023573 -0.050178126 0.026992494
0.49990925 -0.051184498 0.026934676
0.49817294 -0.051734738 0.026899893
0.60676074 -0.0048072115 0.029552765
0.60536182 -0.0053822612 0.029519733
0.60326087 -0.0059637846 0.028730288
0.60085094 -0.0069979569 0.028421527
0.59839278 -0.0080084074 0.028363453
0.59628582 -0.0088745859 0.028313672
0.50147784 -0.048000455 0.026837667
0.4990454 -0.049087308 0.02700785
0.49694705 -0.049949937 0.026958264
0.49526021 -0.049825933 0.026949596
0.60610265 -0.002216721 0.029646389
0.60438579 -0.0029486306 0.02943803
0.60229713 -0.0035306644 0.028565295
0.59983897 -0.0045411736 0.028507236
0.59738082 -0.0055516772 0.028449146
0.59527385 -0.0064178528 0.028399365
0.59364611 -0.0072511621 0.028354624
0.50029474 -0.045694336 0.026746923
0.49803761 -0.046640664 0.027093196
0.49593925 -0.047503248 0.027043611
0.49454033 -0.048078299 0.027010564
0.60544455 0.00037370622 0.029740026
0.60340875 -0.00051257759 0.029356429
0.60142976 -0.0014248714 0.02863878
0.59897161 -0.0024353806 0.028580705
0.59651345 -0.0034458842 0.028522614
0.5945304 -0.0043636933 0.028471852
0.49934089 -0.043330044 0.026646113
0.49702981 -0.044193976 0.027178574
0.49493143 -0.045056552 0.027129004
0.49319518 -0.045606848 0.027094219
0.60458076 0.0024708416 0.0298132
0.60242826 0.0016949307 0.029366186
0.60041779 0.0010318533 0.028724503
0.59795964 2.1347776e-05 0.028666427
0.59582901 -0.0014994089 0.028591463
0.59453052 -0.0026194956 0.02853838
0.4984557 -0.04098054 0.026454732
0.49629694 -0.041844238 0.027080439
0.49406761 -0.042959418 0.027202163
0.49231899 -0.043678258 0.027160838
0.60357291 0.0049175359 0.029898547
0.60156429 0.004158264 0.029489737
0.59940588 0.0034885872 0.028810211
0.5975408 0.002604695 0.028761668
0.49756822 -0.038375288 0.026404141
0.49535924 -0.039510649 0.027143857
0.49305978 -0.040512726 0.027287509
0.49114659 -0.041162983 0.027247533
0.60291481 0.007508019 0.029992186
0.60058492 0.006473856 0.029267045
0.59853846 0.0055943821 0.028883681
0.59727836 0.004666023 0.028838217
0.49670082 -0.036269505 0.026477609
0.49439403 -0.037150718 0.027009424
0.49205199 -0.038066033 0.0273729
0.48978496 -0.03891626 0.027322454
0.60205102 0.0096051488 0.030065343
0.59975815 0.0085701365 0.029118106
0.59791303 0.0076824073 0.028958388
0.49583343 -0.034163706 0.026551077
0.49344161 -0.035120893 0.026745752
0.49118817 -0.0359689 0.02744606
0.48874009 -0.036975268 0.027388211
0.48670352 -0.036995046 0.02737128
0.60104322 0.012051851 0.030150721
0.59876609 0.011023084 0.029092651
0.59684503 0.010370152 0.029052481
0.49482149 -0.031706974 0.026636815
0.49271446 -0.032573108 0.026587034
0.49046272 -0.033429313 0.027287019
0.48773229 -0.034528572 0.027473575
0.48598364 -0.035247415 0.027432267
0.60003537 0.014498539 0.030236084
0.59775412 0.01347981 0.02917836
0.59564716 0.01261368 0.029128579
0.49380955 -0.029250246 0.026722509
0.4917025 -0.030116377 0.026672728
0.48940772 -0.031012315 0.027204078
0.48672447 -0.03208188 0.027558936
0.48497584 -0.032800727 0.027517626
0.59917158 0.016595677 0.030309256
0.59688675 0.015585605 0.029251829
0.59502172 0.014701661 0.029203286
0.49294212 -0.027144456 0.026795976
0.49083513 -0.028010586 0.026746195
0.48847193 -0.028958231 0.02702485
0.48586065 -0.029984739 0.02763211
0.48411202 -0.030703584 0.0275908
0.59823853 0.018590041 0.030377943
0.59585035 0.017920416 0.029332716
0.59411895 0.017320588 0.029296067
0.49193019 -0.024687726 0.026881713
0.48982319 -0.025553856 0.026831934
0.48752204 -0.026569743 0.026975038
0.4849968 -0.027887613 0.027705282
0.48324817 -0.02860645 0.027663959
0.59695023 0.02099571 0.030459516
0.59492755 0.020381108 0.029819548
0.59280753 0.019756783 0.029378615
0.49086657 -0.022354782 0.026962286
0.48881125 -0.023097122 0.026917642
0.48642927 -0.024184093 0.027242135
0.483989 -0.025440915 0.027790645
0.48238432 -0.026509264 0.027737133
0.59559268 0.02329867 0.030536614
0.59389353 0.022587772 0.030162401
0.59188849 0.02173873 0.029446948
0.59033924 0.021512304 0.029425981
0.48969966 -0.020269532 0.027032567
0.48794383 -0.020991335 0.02699111
0.48563376 -0.021922361 0.027437609
0.48310274 -0.023018565 0.027876038
0.59472883 0.025395803 0.030609788
0.59301257 0.024683859 0.030346613
0.59102106 0.023844525 0.029520417
0.58896571 0.023102242 0.029475773
0.48883229 -0.018163741 0.02710605
0.48707646 -0.018885542 0.02706458
0.484842 -0.019783765 0.02776311
0.48246709 -0.020753296 0.027957458
0.59351528 0.0273492 0.0306747
0.59197241 0.027123652 0.030653842
0.58996367 0.026286837 0.029938802
0.5875923 0.025389832 0.029552186
0.48797318 -0.015480008 0.027201656
0.48586509 -0.016391814 0.02729308
0.48375639 -0.017481772 0.027949553
0.48165673 -0.01838894 0.028041242
0.59091318 0.029446993 0.030734088
0.58889484 0.02871833 0.030467872
0.58653903 0.02774753 0.029633787
0.5847832 0.027025733 0.029592257
0.48866749 -0.012280796 0.027329214
0.48715955 -0.013105893 0.027285792
0.48482633 -0.014063809 0.027647689
0.48254982 -0.014997328 0.028177766
0.48092875 -0.015827259 0.028133217
0.58964819 0.031277046 0.030793883
0.58800238 0.030804899 0.030762821
0.58565146 0.029843643 0.029873515
0.58356464 0.028987143 0.029657446
0.4882752 -0.010082304 0.027410023
0.48629215 -0.011000107 0.02735926
0.48398545 -0.011951599 0.027804989
0.481686 -0.012900196 0.028250923
0.48043108 -0.013824806 0.028205674
0.58695114 0.03291579 0.030835025
0.58460206 0.032276578 0.030291595
0.58220154 0.031299543 0.029734904
0.58036315 0.031775005 0.029738402
0.48738718 -0.0076772021 0.027494764
0.48508123 -0.0085109612 0.027587593
0.48297483 -0.0096240407 0.028243205
0.48087567 -0.010535832 0.028334726
0.58557528 0.034711652 0.030892614
0.58378792 0.034715261 0.030778486
0.58139974 0.033911534 0.030010145
0.57944614 0.033203766 0.029785655
0.48788318 -0.0043953639 0.027623894
0.48637524 -0.0052204682 0.027580472
0.48409334 -0.006176346 0.028109627
0.4817687 -0.0071442341 0.028471233
0.48051378 -0.0080688475 0.028425982
0.58266252 0.036620453 0.030942347
0.58061564 0.035959013 0.030483849
0.57821518 0.03499594 0.029844299
0.57638371 0.034790188 0.029821867
0.48762861 -0.0020604338 0.027711004
0.48554087 -0.0031059328 0.02776573
0.48332813 -0.0040478222 0.028518356
0.48123401 -0.005184276 0.02854177
0.58174926 0.038043335 0.030989379
0.57952756 0.038274433 0.030980561
0.57727605 0.037350826 0.030290589
0.57524085 0.036235556 0.029867988
0.57354701 0.03636007 0.02985926
0.48922625 0.0011498686 0.027846191
0.48701811 8.633174e-05 0.027942039
0.48476884 -0.00059377402 0.028661609
0.48278648 -0.0016727 0.028688099
0.57793689 0.040018279 0.031034477
0.57610828 0.039653748 0.030905966
0.57421684 0.038676493 0.030119795
0.57197732 0.038177155 0.029916171
0.49027997 0.0044899695 0.027982026
0.48854482 0.0034688655 0.027929299
0.48626506 0.0025838539 0.028344426
0.48378542 0.0018590223 0.02883081
0.48267445 0.00058491342 0.028773356
0.57488692 0.041598234 0.031070564
0.57315785 0.041058771 0.030925032
0.57075381 0.040130101 0.030064384
0.5685761 0.039788485 0.029950617
0.49141631 0.0077956915 0.028117184
0.48963982 0.006791763 0.028064787
0.48725435 0.0057926755 0.028257897
0.48501992 0.0048187915 0.028953552
0.48339885 0.0039888602 0.02890902
0.57212812 0.042963095 0.031100728
0.56986403 0.042190578 0.030552898
0.56748486 0.04135764 0.030001858
0.49302775 0.011194054 0.028259637
0.49123058 0.0099080615 0.028196346
0.48877242 0.0088975523 0.028138256
0.48650885 0.0079108123 0.028749764
0.48427951 0.0068644732 0.029025726
0.57101148 0.044255689 0.031141184
0.56872547 0.044431821 0.03105827
0.56641155 0.043661654 0.030331444
0.56435794 0.043161549 0.030045878
0.56247592 0.043299906 0.030036177
0.49397823 0.014867894 0.02840738
0.49267676 0.013375353 0.028340144
0.49023613 0.012365744 0.028344775
0.48797429 0.011369422 0.028976787
0.48569509 0.01032782 0.029169133
0.48395056 0.0087387078 0.02909464
0.56719905 0.046230614 0.031186283
0.56537509 0.046025723 0.031163998
0.5632934 0.045240924 0.030450337
0.56091368 0.044373848 0.030064806
0.55844808 0.044106424 0.030034982
0.49548638 0.018018637 0.028539589
0.49377182 0.016698211 0.028475618
0.49155015 0.015844855 0.028625548
0.48934081 0.014723644 0.029092893
0.48716006 0.013770603 0.029312145
0.48557594 0.012404148 0.029247414
0.56423688 0.047465168 0.031209871
0.56241286 0.047260277 0.031187586
0.55997121 0.046324357 0.030548709
0.55751866 0.045365974 0.030075692
0.55537862 0.044978693 0.030043909
0.55371785 0.044624314 0.030017197
0.49893624 0.022104416 0.028722893
0.49709776 0.020835619 0.028659906
0.49501139 0.019670181 0.028598867
0.49296343 0.018801372 0.028771838
0.49069697 0.017788496 0.029410135
0.48860028 0.016644586 0.02943325
0.48716021 0.015507646 0.029378437
0.56113756 0.04837089 0.031219831
0.55901867 0.048153803 0.031194739
0.55650818 0.047725357 0.030908238
0.55440354 0.046913639 0.030443598
0.55198288 0.046045102 0.03005768
0.54939049 0.04541035 0.030012859
0.54719883 0.044899233 0.02997594
0.54483575 0.044256128 0.029932626
0.50304717 0.027077477 0.028945303
0.50069523 0.025524352 0.028867397
0.49891576 0.024147924 0.028800756
0.49653625 0.023128148 0.029055677
0.49421534 0.022106998 0.029519485
0.49215949 0.021241192 0.029636916
0.49022567 0.019730959 0.029563922
0.55543929 0.04929813 0.031209977
0.55338514 0.049037516 0.031183718
0.55095232 0.048282489 0.031052185
0.54849106 0.047320828 0.03063456
0.54636914 0.046511978 0.030142101
0.54425746 0.045659982 0.029981628
0.54186881 0.04475265 0.029928062
0.53929991 0.044237599 0.029887963
0.53764743 0.043763436 0.029856751
0.50885195 0.031926077 0.029176407
0.50685114 0.030517284 0.029106796
0.5049271 0.029491842 0.029052395
0.50246894 0.028481331 0.028994335
0.50008911 0.027454846 0.029269807
0.49775651 0.026425958 0.029712405
0.49547181 0.025361642 0.029820446
0.49364087 0.024098054 0.02975769
0.4921391 0.023276351 0.029714409
0.55002904 0.049526334 0.031175734
0.54762512 0.049121961 0.031141212
0.54554439 0.04850018 0.031100985
0.54342127 0.047693431 0.030608531
0.54094839 0.046723343 0.030246124
0.53847378 0.045744769 0.029938947
0.53636682 0.044878595 0.029889166
0.53406364 0.044239558 0.029846502
0.53116137 0.043559507 0.029797465
0.5290544 0.042693332 0.029747684
0.52694738 0.041827198 0.029697917
0.52448922 0.040816698 0.029639829
0.52203113 0.039806195 0.029581752
0.5199241 0.038940076 0.029531972
0.51732826 0.037599303 0.029460222
0.51515239 0.036568064 0.029403597
0.51304537 0.035701942 0.029353816
0.51108295 0.034484826 0.029291794
0.50862485 0.033474259 0.029233735
0.50621361 0.032448728 0.029397812
0.50391793 0.031516545 0.029758485
0.5016256 0.0303788 0.029960679
0.49938071 0.029522967 0.030010302
0.49735776 0.028146382 0.029941689
0.54461879 0.049754515 0.03114149
0.54261512 0.049257793 0.031106632
0.54006493 0.048625596 0.031062253
0.5375104 0.047961347 0.030925643
0.53542197 0.04723946 0.030722305
0.53294677 0.046262257 0.030415179
0.53047514 0.045273654 0.03019104
0.52836144 0.044418454 0.030058241
0.52612305 0.043583259 0.030066323
0.52375305 0.042450324 0.029896507
0.52134538 0.041534215 0.029892473
0.5192405 0.040668953 0.029842749
0.51678491 0.039659522 0.029784719
0.51437324 0.038626928 0.029976362
0.51227057 0.037762582 0.029926678
0.50991684 0.03682851 0.030172568
0.50759149 0.035677068 0.030233335
0.50552374 0.034664024 0.030255247
0.50326079 0.033406779 0.0301893
0.50100601 0.032030318 0.030118871
0.53402448 0.048668966 0.031015944
0.5322758 0.047950186 0.030974634
0.52958089 0.047046684 0.030918758
0.52758539 0.046430752 0.030879404
0.52513736 0.045424379 0.030821573
0.52254528 0.044767521 0.030775944
0.52044696 0.04390493 0.030726373
0.51834863 0.043042302 0.030676788
0.5160445 0.041686423 0.030606737
0.51359642 0.040680062 0.030548904
0.51164204 0.039467927 0.030487131
0.50989342 0.038749084 0.030445809
0.59356403 -0.0039823446 0.027477944
0.59209132 -0.0054119499 0.027411757
0.59519869 -0.00034346431 0.027629787
0.59343976 -0.0018606745 0.02755795
0.59107524 -0.0029451307 0.027497826
0.59627742 0.0022428017 0.027737049
0.594643 0.0014060624 0.027692162
0.59252739 0.00053633377 0.02764217
0.59599966 0.0045186337 0.027821714
0.59377205 0.0035204533 0.027765924
0.59165645 0.0026507825 0.027715947
0.59684205 0.0080790967 0.027964238
0.5952242 0.0070019197 0.027910357
0.59275597 0.0059872791 0.027852025
0.59064031 0.0051176045 0.027802033
0.59611624 0.0098411236 0.028025726
0.59420806 0.009468738 0.027996412
0.59173983 0.0084540993 0.027938064
0.58962423 0.0075844266 0.027888073
0.59333712 0.011583187 0.028070176
0.59086889 0.010568548 0.028011829
0.58875328 0.0096988194 0.02796185
0.59408402 0.014774762 0.028197851
0.59246618 0.013697583 0.028143954
0.58999795 0.012682937 0.028085606
0.58788234 0.01181322 0.028035615
0.59321308 0.016889155 0.028271629
0.5914501 0.016164403 0.028230038
0.58898187 0.015149761 0.028171705
0.58686626 0.014280036 0.028121714
0.59248728 0.018651184 0.0283331
0.59043396 0.018631224 0.028316094
0.58796573 0.017616585 0.028257746
0.58585012 0.01674686 0.028207753
0.49180874 -0.021706097 0.02599374
0.5893805 0.020588201 0.028382387
0.58709478 0.019730974 0.028331509
0.58497918 0.018861316 0.028281532
0.58256149 0.017848805 0.027723288
0.49083406 -0.019840315 0.026057187
0.58771724 0.022624135 0.028446848
0.5860787 0.022197802 0.028417608
0.5839631 0.021328129 0.028367631
0.58150691 0.020314835 0.028184326
0.57911634 0.019310322 0.027251311
0.48981798 -0.017373549 0.026143257
0.58506262 0.024664618 0.028503647
0.58294696 0.023794953 0.028453656
0.58047879 0.022780254 0.028395383
0.57801056 0.021765608 0.028337035
0.57589489 0.020895943 0.028287044
0.49056488 -0.014181976 0.026270991
0.48905075 -0.01501043 0.026227351
0.58383906 0.026634101 0.028569069
0.58207601 0.025909346 0.028527435
0.57960778 0.024894703 0.028469145
0.57713956 0.023880061 0.028410798
0.57502395 0.023010336 0.028360821
0.48981839 -0.012119433 0.026343759
0.58261549 0.028603569 0.02863452
0.58120513 0.028023746 0.028601212
0.57873684 0.027009096 0.028542925
0.57626867 0.02599445 0.028484575
0.57415301 0.025124781 0.028434586
0.5720374 0.02425506 0.028384609
0.4909386 -0.0090834089 0.026468523
0.48942447 -0.0099119144 0.02642487
0.58016449 0.030368086 0.028682426
0.57772076 0.029475916 0.028629009
0.57525253 0.028461274 0.028570676
0.57313693 0.027591545 0.028520685
0.57102132 0.026721876 0.028470708
0.48992252 -0.0066166474 0.026554622
0.4885121 -0.0071964236 0.026521254
0.57871658 0.032563735 0.028754678
0.57670468 0.03194274 0.028715048
0.57423645 0.03092809 0.028656716
0.57212085 0.030058373 0.028606724
0.57000518 0.029188696 0.028556732
0.49102202 -0.0032800939 0.02669064
0.48903087 -0.0042016711 0.026639653
0.57562399 0.033787806 0.028776851
