# .PCD v0.7 - Point Cloud Data file format
VERSION 0.7
FIELDS x y z
SIZE 4 4 4
TYPE F F F
COUNT 1 1 1
WIDTH 1357
HEIGHT 1
VIEWPOINT 0 0 0 1 0 0 0
POINTS 1357
DATA ascii
0.64798903 -0.10282842 0.037410378
0.64792132 -0.10461382 0.037391692
0.64613652 -0.1045467 0.037442118
0.64606887 -0.1063321 0.037423432
0.64211863 -0.10052173 0.037600368
0.64220536 -0.10216393 0.03757903
0.64239526 -0.1042272 0.037549943
0.64050514 -0.099865071 0.03765288
0.6404205 -0.1020968 0.037629485
0.64036977 -0.10343587 0.037615448
0.63878798 -0.098012552 0.037722021
0.63872027 -0.099797949 0.037703335
0.63879007 -0.1018865 0.037677288
0.63648933 -0.099714048 0.037766397
0.77521199 -0.027746059 0.033734113
0.7751441 -0.02953767 0.033715338
0.77326953 -0.0093103806 0.033667266
0.77363932 -0.012032473 0.033458829
0.77346557 -0.014672644 0.033933431
0.77336371 -0.017360073 0.033905298
0.77335024 -0.019660059 0.033378929
0.77326518 -0.02190347 0.033355415
0.77370971 -0.024487387 0.033438325
0.77393401 -0.027297322 0.033441395
0.77355552 -0.029755782 0.033185393
0.77322304 -0.031898696 0.033241361
0.77321327 -0.034454685 0.033378899
0.77311134 -0.037145223 0.033350736
0.7730124 -0.039570276 0.033373177
0.77240664 -0.04180092 0.033250004
0.77212971 -0.044001944 0.033632487
0.77179551 -0.046904907 0.033608317
0.77172756 -0.048696518 0.033589542
0.7708745 -0.0002218429 0.034172177
0.77102202 -0.0022458294 0.034144729
0.77139759 -0.0048825955 0.033675104
0.77158344 -0.0070128804 0.033573925
0.77201772 -0.009315432 0.03303507
0.77236485 -0.012029086 0.032994121
0.77226263 -0.014725843 0.032965869
0.77217746 -0.016973138 0.032942325
0.77209228 -0.019220434 0.032918781
0.77199006 -0.02191719 0.032890558
0.77192193 -0.023715027 0.032871723
0.77158123 -0.032704215 0.032777578
0.7715131 -0.034502052 0.032758743
0.77141088 -0.037198808 0.03273049
0.77132571 -0.039446101 0.032706946
0.77124053 -0.041693401 0.032683402
0.77113831 -0.044390164 0.03265518
0.77080292 -0.0473032 0.03263092
0.77010942 -0.049809828 0.032871425
0.76994926 -0.052162774 0.033348978
0.76909351 -0.054038063 0.033351213
0.76876944 -0.055761948 0.033590436
0.76845962 0.0070456527 0.034323186
0.76840866 0.0057019414 0.034309089
0.76899493 0.0032982575 0.033979237
0.76929778 0.00082393084 0.033727884
0.76969111 -0.0018462939 0.033185929
0.76995862 -0.0042868955 0.033150345
0.76815283 -0.051929586 0.032651335
0.76759738 -0.054119438 0.032808304
0.7670114 -0.056728601 0.033072442
0.76662558 -0.059213698 0.03332448
0.76607758 -0.06171605 0.033596724
0.76645637 0.010347628 0.034216911
0.76689392 0.008101291 0.033753663
0.76734364 0.0058636749 0.033340156
0.76756936 0.0039047524 0.033311307
0.76523554 -0.057671174 0.032666355
0.76493424 -0.059685297 0.032651514
0.76443332 -0.061903618 0.032973349
0.76383418 -0.064206257 0.033230275
0.7632761 -0.066619426 0.033618182
0.76292104 -0.068101212 0.03361097
0.76443511 0.013252323 0.034506768
0.76475322 0.010943818 0.033670902
0.76228416 -0.064311683 0.032671958
0.7617321 -0.06649439 0.032828897
0.76156086 -0.068994701 0.033471823
0.76102817 -0.070721291 0.033633471
0.76191837 0.017832395 0.034629613
0.76237261 0.015709527 0.034192324
0.76278132 0.013665336 0.033700019
0.76336586 0.011714531 0.033518344
0.76036763 -0.067390315 0.03268981
0.75993323 -0.069354415 0.03267926
0.75923437 -0.071649492 0.033339202
0.75852698 -0.073617503 0.03366971
0.75918621 0.022644838 0.034761161
0.75978029 0.020706311 0.034436435
0.76025707 0.018259039 0.033823252
0.76084036 0.016310506 0.033641636
0.7571792 -0.072371542 0.032721132
0.75658429 -0.074221149 0.033091545
0.75574666 -0.076405428 0.033548236
0.7570042 0.026143543 0.034662127
0.75758922 0.023730312 0.034317881
0.75803804 0.021517023 0.033779681
0.75409096 -0.076625019 0.032900989
0.75347 -0.078743182 0.033376187
0.75279349 -0.080952361 0.033744723
0.75494021 0.028423287 0.034695864
0.75522178 0.02671659 0.034084737
0.75575531 0.024603534 0.033878803
0.75151491 -0.079360127 0.032798231
0.75091881 -0.081425421 0.0331662
0.75069439 -0.083497763 0.033573747
0.75313425 0.030854773 0.034649104
0.75320184 0.028962739 0.03425023
0.74900502 -0.082266413 0.032834589
0.74891049 -0.083916046 0.033246964
0.74809062 -0.085912943 0.033618391
0.75035006 0.033464301 0.034798384
0.75091296 0.031387102 0.0340918
0.74713963 -0.083996654 0.032866567
0.74643618 -0.086153112 0.03319478
0.74572456 -0.088295974 0.033690125
0.74505752 -0.089856558 0.033857435
0.74786508 0.036003184 0.035030246
0.74830937 0.034173988 0.034363121
0.74366295 -0.088666983 0.032909513
0.7431345 -0.090659991 0.033651561
0.74500978 0.038469519 0.034837991
0.7459411 0.036823604 0.034693033
0.74069053 -0.091160163 0.033106416
0.74015695 -0.092961587 0.033958048
0.74285519 0.040392056 0.034419924
0.74327046 0.039476242 0.034397781
0.73874545 -0.091782786 0.033010483
0.73821646 -0.093374439 0.033507079
0.73797691 -0.095271826 0.033992082
0.73614073 -0.094025351 0.033057123
0.73576033 -0.09576986 0.03379792
0.73490131 -0.097548395 0.034051448
0.73759973 0.044190496 0.034610003
0.73348719 -0.095871329 0.033276439
0.73276687 -0.097789422 0.033858001
0.73496073 0.045982994 0.035704553
0.73673522 0.045123208 0.034644812
0.7305972 -0.098245755 0.033496261
0.72964835 -0.10014147 0.033917695
0.73306894 0.04675658 0.035194486
0.72858804 -0.098602407 0.033214599
0.72762531 -0.10023237 0.033556104
0.72733516 -0.10197356 0.03421104
0.73058504 0.048838805 0.035859287
0.73105919 0.047294427 0.035027951
0.72550178 -0.10088687 0.033274174
0.72520727 -0.1024683 0.034064502
0.72862381 0.049317986 0.035519242
0.72919917 0.048107207 0.034888983
0.72399271 -0.10113019 0.033313364
0.72314119 -0.10290785 0.033566684
0.72254032 -0.10426023 0.034318149
0.72582257 0.05003459 0.035005212
0.72048938 -0.10333896 0.033385426
0.72027749 -0.10469303 0.03420943
0.72341055 0.052476589 0.03581509
0.72390968 0.051006727 0.035069674
0.71804947 -0.10360729 0.033450246
0.71755898 -0.10515529 0.034001857
0.71706539 -0.10674559 0.034441918
0.72093815 0.054584097 0.036194056
0.72129393 0.052861474 0.035497308
0.71539325 -0.10504328 0.033707708
0.71509844 -0.10719056 0.034324795
0.71887833 0.054699294 0.035966903
0.71927869 0.053173311 0.035473645
0.71348828 -0.10523615 0.033558428
0.71299142 -0.10721744 0.034132987
0.71248603 -0.10926464 0.034540325
0.71608073 0.05656093 0.036352068
0.71643078 0.05482766 0.035766512
0.71029508 -0.10715148 0.034125447
0.71024722 -0.10918045 0.034603626
0.71384197 0.056645121 0.036415339
0.71374905 0.055393633 0.035736531
0.70766681 -0.10740828 0.033995539
0.70756072 -0.10907942 0.034679562
0.71115541 0.056746151 0.036491305
0.7112453 0.055568583 0.035874933
0.70508236 -0.1073956 0.033767521
0.70484316 -0.10912114 0.034421265
0.70877874 0.057134561 0.036561936
0.70864236 0.055781804 0.0355497
0.70260262 -0.1075274 0.033835053
0.70256799 -0.10955684 0.034312844
0.70728618 0.05719069 0.036604136
0.7068451 0.055849392 0.035600513
0.70032531 -0.10947248 0.034376204
0.70029473 -0.11149742 0.034853965
0.6976341 -0.10937129 0.034452289
0.69760823 -0.11139639 0.034929901
0.70042628 0.057598181 0.036799788
0.7012369 0.055324983 0.036751002
0.69500953 -0.1095863 0.034422815
0.69492167 -0.11129536 0.035005838
0.69813448 0.060226105 0.036893874
0.69889653 0.058252603 0.036707014
0.69947982 0.056288145 0.036811024
0.69247681 -0.10978677 0.034519613
0.69223517 -0.11119433 0.035081804
0.69651532 0.060885053 0.036946535
0.6967575 0.058308125 0.036052555
0.69041157 -0.10977253 0.034481972
0.68999636 -0.11111014 0.035145104
0.69411772 0.06353832 0.037043869
0.69424731 0.061003849 0.036788732
0.69424456 0.058963839 0.035987169
0.68852067 -0.11104872 0.034186423
0.69169188 0.063757695 0.037113935
0.69151229 0.061157644 0.036533117
0.69138259 0.059431545 0.036072224
0.68406558 -0.11118219 0.034642369
0.68900537 0.063858725 0.037189871
0.68880439 0.061276574 0.036498725
0.68868673 0.059532925 0.036148429
0.68228143 -0.10946379 0.03437838
0.68244886 -0.11075901 0.034930468
0.68631881 0.063959755 0.037265837
0.68629402 0.061419263 0.036987126
0.68627906 0.0593234 0.03621304
0.67985314 -0.10964794 0.035044134
0.67969805 -0.11072286 0.035436213
0.68408006 0.064043947 0.037329108
0.68411875 0.061266158 0.037010163
0.68417662 0.059252433 0.036270738
0.67772734 -0.10906973 0.03475979
0.67745924 -0.11063867 0.035499513
0.68184125 0.064128138 0.037392408
0.68173939 0.061440717 0.037364244
0.68148077 0.059353814 0.036346942
0.67515785 -0.10904888 0.034914911
0.67522049 -0.11055446 0.035562813
0.67905289 0.061541751 0.037440211
0.67878491 0.059455194 0.036423177
0.67241657 -0.10869285 0.035162061
0.67298168 -0.11047027 0.035626084
0.67636633 0.061642781 0.037516147
0.67631125 0.059608709 0.036693901
0.67032969 -0.10818321 0.035154611
0.67412758 0.061726969 0.037579447
0.67420822 0.059027769 0.036795735
0.66881919 -0.10850742 0.034764141
0.6716482 0.059224267 0.036952615
0.66436017 -0.10743956 0.034900576
0.66902792 0.059274636 0.037359625
0.6688149 0.057579629 0.036679059
0.66257846 -0.10609442 0.03539446
0.66255283 -0.1076111 0.035949349
0.66636384 0.059359107 0.037545919
0.66596633 0.05704375 0.036752194
0.66000104 -0.10578141 0.035374492
0.65995699 -0.10807417 0.036016285
0.66372734 0.059426822 0.037842423
0.6637187 0.056960166 0.0370996
0.66332096 0.055085633 0.036803246
0.65761918 -0.10539175 0.035445303
0.6573782 -0.10808931 0.0360879
0.65729332 -0.11032883 0.036064416
0.66159731 0.05676996 0.037370861
0.66129059 0.054936942 0.036858052
0.65536118 -0.10269015 0.035205841
0.65548587 -0.10498754 0.035630614
0.65513939 -0.10800512 0.036151171
0.65505451 -0.11024464 0.036127716
0.65925002 0.057179123 0.037798196
0.65877467 0.055111062 0.037180185
0.6581493 0.053179655 0.036925226
0.65289956 -0.10115726 0.035292029
0.65282649 -0.10268438 0.035651594
0.65307182 -0.10509893 0.03614217
0.65290064 -0.10792093 0.036214471
0.6561566 0.057233799 0.03727755
0.65628755 0.05507407 0.0371418
0.65592176 0.052775819 0.036982596
0.6554783 0.049979366 0.036962688
0.65496087 0.048198424 0.036956578
0.65003765 -0.10068955 0.035377085
0.65038681 -0.10249013 0.036235899
0.65093559 -0.10455774 0.036307931
0.65341914 0.055007905 0.037077993
0.65333396 0.052760608 0.037054449
0.65326583 0.050962768 0.037035614
0.64749855 -0.10006322 0.03570509
0.64774829 -0.10189613 0.036427349
0.65117258 0.055092391 0.037141502
0.6510874 0.052845094 0.037117958
0.65101928 0.051047254 0.037099123
0.64522511 -0.097867973 0.035543591
0.64514244 -0.099820502 0.036148638
0.64504474 -0.10224301 0.036498606
0.64449513 -0.10491358 0.036483109
0.64884084 0.052929576 0.037181467
0.64862001 0.050494481 0.037159532
0.64232057 -0.095358215 0.035653383
0.6430732 -0.097248979 0.035735667
0.64306122 -0.099407122 0.036443591
0.64325374 -0.10217565 0.03654924
0.64316887 -0.10441518 0.036525786
0.64604276 0.0503342 0.037229419
0.64552534 0.048553258 0.037223309
0.64028257 -0.095065296 0.035880208
0.64080012 -0.096912362 0.036428124
0.64091837 -0.098723762 0.036654055
0.64312607 0.048000485 0.037283719
0.63748038 -0.092475601 0.035821348
0.6379801 -0.094579816 0.036199987
0.63806742 -0.097046651 0.036752731
0.63708699 -0.099252485 0.036754608
0.64099818 0.04782331 0.037340909
0.64076889 0.045731463 0.037323177
0.63530195 -0.090593271 0.035903662
0.63548779 -0.092142992 0.036080718
0.63549912 -0.094451696 0.036672235
0.63538086 -0.096945621 0.036828697
0.63549548 -0.098654382 0.036805809
0.6386494 0.045211036 0.037376165
0.63797081 0.04313609 0.037371129
0.63322788 -0.089915141 0.035969228
0.63325143 -0.092187196 0.036275834
0.63277924 -0.094605066 0.036928087
0.63595355 0.045312416 0.0374524
0.63586837 0.04306512 0.037428856
0.63558412 0.04150046 0.037418723
0.63046175 -0.087710656 0.036071628
0.63084292 -0.089525387 0.036040097
0.63075775 -0.091772676 0.036016583
0.6304276 -0.09409897 0.036427736
0.63349283 0.043528344 0.038389593
0.6331256 0.040908974 0.037591487
0.63240874 0.038844258 0.03747648
0.62741882 -0.084895618 0.036188811
0.6281327 -0.086835399 0.036146581
0.62814707 -0.089424007 0.036116332
0.62806189 -0.091671295 0.036092788
0.63050795 0.040990178 0.037887603
0.63028926 0.038323831 0.037529498
0.62977183 0.036542889 0.037523359
0.62513608 -0.081809103 0.036287934
0.62565565 -0.083929121 0.036249012
0.62555343 -0.086625867 0.036220789
0.62545121 -0.089322627 0.036192536
0.6280427 0.038408313 0.037593007
0.62785745 0.035894722 0.037569165
0.62313014 -0.079333134 0.036372304
0.62351131 -0.081147879 0.036340773
0.62340909 -0.083844632 0.036312521
0.62330687 -0.086541392 0.036284298
0.62081331 -0.077145554 0.036462039
0.62134993 -0.078816086 0.036427826
0.62126476 -0.081063382 0.036404282
0.62116253 -0.083760157 0.036376059
0.618159 -0.073970042 0.036572516
0.61873925 -0.076467425 0.036527574
0.61865407 -0.078714706 0.03650403
0.61925137 -0.080762617 0.036463797
0.61548549 -0.067343049 0.036723346
0.61572826 -0.068852514 0.036699176
0.61613125 -0.071080677 0.036662281
0.61614561 -0.073669277 0.036632031
0.61379045 -0.064578712 0.036802411
0.61417162 -0.066393442 0.03677088
0.61393857 -0.068846047 0.037527174
0.61129904 -0.059083819 0.036935091
0.61158353 -0.061074957 0.036904216
0.61202729 -0.0636122 0.036862612
0.61197114 -0.066277266 0.036944598
0.61129475 0.01203214 0.037755102
0.60880756 -0.053588927 0.037067801
0.60917175 -0.055853121 0.037031561
0.60952437 -0.05824203 0.037194282
0.60975403 -0.06079831 0.037458569
0.60653228 -0.048327208 0.037191808
0.60699594 -0.05093272 0.037148863
0.60701036 -0.053521335 0.037118614
0.60503638 -0.046245508 0.037257433
0.60284519 -0.020957503 0.037609965
0.60305387 -0.023365885 0.037576407
0.60312414 -0.025468994 0.037550211
0.77230471 -0.025364537 0.031841576
0.77239233 -0.027023908 0.031819999
0.77208996 -0.029044997 0.031805128
0.77177048 -0.0315171 0.031785518
0.77080464 -0.0093495613 0.032067955
0.77115297 -0.012072603 0.032026917
0.77105039 -0.014778691 0.031998575
0.77096492 -0.017033767 0.031974912
0.77087945 -0.019288834 0.031951308
0.77077687 -0.021994926 0.031922966
0.77079791 -0.024551537 0.031692833
0.77058852 -0.026768439 0.031272918
0.7705695 -0.029287785 0.031344414
0.77046674 -0.031998534 0.031316042
0.77034211 -0.034680117 0.031455308
0.77024555 -0.036923718 0.031515539
0.7701273 -0.039133485 0.031743467
0.77002472 -0.041839562 0.031715125
0.7699222 -0.044545654 0.031686783
0.76973629 -0.047067951 0.031662852
0.76930034 -0.049038842 0.031652272
0.76844138 -0.00022753607 0.032238901
0.76858985 -0.0022655809 0.032211274
0.76876992 -0.0043208515 0.031932473
0.76916003 -0.0066094054 0.03170073
0.76908588 -0.009338093 0.03144902
0.76898313 -0.012050399 0.031420588
0.76891929 -0.014327879 0.031229347
0.76886922 -0.016619932 0.030926436
0.76879388 -0.019362412 0.030674577
0.76869082 -0.022080947 0.030646086
0.76860493 -0.024346393 0.030622363
0.76854718 -0.026644103 0.030375153
0.76845807 -0.029381368 0.030234933
0.76831305 -0.032048889 0.030541688
0.76822716 -0.034314331 0.030517966
0.76815522 -0.036599539 0.030382454
0.76803827 -0.039298296 0.030465752
0.76790828 -0.041972823 0.030660868
0.76779187 -0.044666771 0.030744225
0.76779181 -0.047066469 0.031002373
0.7674405 -0.049189821 0.031202108
0.76714158 -0.051538549 0.031683564
0.76639003 -0.054349288 0.03167206
0.76600969 0.0070904279 0.032390982
0.76625329 0.0055757435 0.032366723
0.76654577 0.0033171931 0.032046705
0.76673806 0.00071422104 0.03174141
0.76670206 -0.0020303698 0.03115496
0.76664293 -0.0043083047 0.030907989
0.76659697 -0.0065987175 0.030549347
0.76653463 -0.0093484754 0.030185938
0.76643133 -0.012073227 0.030157387
0.76634526 -0.014343849 0.030133605
0.76625919 -0.016614471 0.030109823
0.76642025 -0.019219227 0.030075312
0.76650661 -0.022081044 0.030039907
0.7664206 -0.024351668 0.030016124
0.76633453 -0.026622299 0.029992342
0.76623124 -0.029347047 0.029963821
0.76612794 -0.032071799 0.029935271
0.76604193 -0.034342423 0.029911488
0.76595587 -0.03661304 0.029887706
0.76550782 -0.039438523 0.029867589
0.76529533 -0.042045474 0.02984345
0.76520926 -0.044316102 0.029819667
0.76509708 -0.046539303 0.030019492
0.76495552 -0.049188256 0.030326396
0.76481521 -0.051831044 0.030633301
0.76464856 -0.05441428 0.03116399
0.76438934 -0.056901291 0.031573296
0.76394767 -0.059225671 0.031683832
0.76342845 -0.061012775 0.031677663
0.76371902 0.01018762 0.032490432
0.76426464 0.008054452 0.032228351
0.76424766 0.005777834 0.031591177
0.76421756 0.0034956867 0.031065494
0.76417673 0.00074989907 0.030479133
0.76435047 -0.0018600477 0.030333072
0.76461112 -0.0041220533 0.030299723
0.76482201 -0.0065554352 0.030265808
0.76339334 -0.04424781 0.029871017
0.76293725 -0.046686422 0.029855609
0.76240528 -0.049326845 0.029839963
0.76219285 -0.051933803 0.029815823
0.76215416 -0.054429144 0.030288339
0.76182097 -0.056588382 0.030344188
0.76180214 -0.058916152 0.030857831
0.76165271 -0.061513044 0.031276673
0.76126683 -0.064002126 0.03156051
0.76051813 -0.066323213 0.031697452
0.76172328 0.013123171 0.032579839
0.76169407 0.010859402 0.031998754
0.76168275 0.0081264116 0.031078249
0.76163727 0.0058476478 0.030664176
0.76183319 0.0036918893 0.030467123
0.76239073 0.001267123 0.030423671
0.7603597 -0.052319631 0.029862404
0.75983691 -0.054119065 0.029856205
0.75940603 -0.056490406 0.029840857
0.75918275 -0.059068717 0.029928505
0.7590372 -0.061675102 0.030347198
0.75888288 -0.064242862 0.03087768
0.75884873 -0.066703059 0.031364411
0.75865167 -0.068581872 0.031473279
0.75856084 -0.070314527 0.031705916
0.75918901 0.017735049 0.032703549
0.75985748 0.015813818 0.032462746
0.76000041 0.013637677 0.031966746
0.7595582 0.010925217 0.030780584
0.75956881 0.0083767409 0.030584186
0.75985622 0.0063649332 0.030552983
0.75714207 -0.059247598 0.02987209
0.75682044 -0.061736748 0.02985236
0.75679743 -0.064228036 0.030024379
0.75649911 -0.066287465 0.030409127
0.75677258 -0.068767555 0.031023204
0.75662512 -0.071068585 0.031626076
0.75575304 -0.072918877 0.031754047
0.75667185 0.02279794 0.032831997
0.75719327 0.020670598 0.032792985
0.75746101 0.018260131 0.032090724
0.75744861 0.016002476 0.031231344
0.75765908 0.013853675 0.030843377
0.75821245 0.010974472 0.030651897
0.75522292 -0.061904058 0.029894888
0.75446451 -0.063922018 0.029892743
0.75437844 -0.066192649 0.02986896
0.75425732 -0.068852961 0.030063987
0.75410318 -0.071377277 0.030706167
0.75394028 -0.073854677 0.031460255
0.75323451 -0.075835221 0.031790555
0.75438124 0.025895134 0.032931477
0.7548148 0.023669545 0.032518595
0.75488746 0.021083327 0.031750292
0.75496358 0.0184846 0.030953944
0.75567794 0.016072281 0.030781209
0.75254536 -0.066578478 0.029915541
0.7518425 -0.069129094 0.029905707
0.75144804 -0.071539715 0.029888868
0.75129926 -0.074059375 0.030530959
0.75125736 -0.076406062 0.031338811
0.75064731 -0.078579113 0.031688064
0.75003499 -0.080833681 0.031821966
0.75236833 0.028379668 0.033016145
0.75233841 0.026597004 0.032440633
0.75230628 0.023915466 0.031410128
0.75278717 0.021365399 0.030922711
0.74930656 -0.07206554 0.029942423
0.74863815 -0.073707901 0.029942095
0.74853861 -0.075908735 0.03014183
0.74847448 -0.078565001 0.03089112
0.74825513 -0.080906823 0.031441927
0.74816316 -0.082569927 0.031854063
0.75004351 0.030574832 0.033106148
0.75061351 0.02892182 0.032571018
0.75014025 0.026718391 0.031558305
0.75024319 0.024614155 0.031030983
0.74650061 -0.076128766 0.029973686
0.74617893 -0.078617923 0.029953957
0.74621457 -0.081147544 0.030924231
0.74622893 -0.083371758 0.031648576
0.74533832 -0.085625291 0.031897485
0.74744087 0.03338265 0.033210993
0.74800479 0.031297244 0.032393098
0.74808156 0.028744113 0.031263798
0.74879307 0.026336187 0.031091183
0.74479979 -0.079020828 0.029987693
0.74391502 -0.0813751 0.029985189
0.74366564 -0.083679624 0.030854881
0.74353069 -0.086124159 0.031608582
0.74283683 -0.088090613 0.031938672
0.74477738 0.036569141 0.033321857
0.74539518 0.034112595 0.032498211
0.74546212 0.031570088 0.031369328
0.74618965 0.029617496 0.031201482
0.74150151 -0.082080193 0.030044228
0.74111325 -0.083576046 0.030180693
0.74077553 -0.085631721 0.030523747
0.74074221 -0.088338815 0.031493962
0.74019074 -0.090399943 0.03198573
0.74199206 0.040512975 0.033444852
0.74260855 0.038908992 0.033409208
0.74278176 0.036919992 0.032714486
0.74284267 0.03439606 0.031474799
0.74356914 0.032444682 0.031307042
0.7391628 -0.083811328 0.030089378
0.7382952 -0.085711494 0.030091614
0.73807269 -0.088159755 0.03051424
0.73794806 -0.090516344 0.031490982
0.73725551 -0.092397302 0.032044411
0.74057662 0.041288853 0.033493191
0.74061078 0.039272398 0.032718658
0.74054796 0.037066981 0.031944633
0.74063444 0.034980495 0.031417966
0.73633569 -0.086433649 0.030137837
0.73581284 -0.088233083 0.030131638
0.73569793 -0.090654194 0.030940652
0.73549861 -0.092826672 0.031888276
0.73758596 0.043388616 0.033600658
0.73843664 0.041620869 0.032778472
0.73835409 0.038979512 0.031861037
0.73888737 0.036865287 0.031488329
0.73412532 -0.088775977 0.030172378
0.73343873 -0.090831727 0.030278921
0.73333019 -0.093223743 0.031143695
0.73302346 -0.094967499 0.031882465
0.73588508 0.046162523 0.033679992
0.73570108 0.044262126 0.033538193
0.73573071 0.041762985 0.03241083
0.7358408 0.039647851 0.031605214
0.73091704 -0.091459759 0.030230731
0.73073095 -0.093291618 0.030464888
0.73043042 -0.095537253 0.031497866
0.72999823 -0.097243167 0.032190531
0.73311329 0.044503942 0.033293396
0.73313421 0.042022564 0.031958044
0.72812432 -0.093173832 0.030288696
0.72782552 -0.095039673 0.030720174
0.72764432 -0.097623415 0.031887919
0.73047471 0.046365988 0.033832937
0.73085374 0.044644982 0.032802105
0.7309224 0.042622082 0.031776398
0.72563392 -0.095308557 0.03033343
0.72545606 -0.097814314 0.031560123
0.72522533 -0.10007472 0.032290757
0.72856152 0.047129527 0.03346625
0.72870159 0.044915557 0.032114804
0.72386253 -0.095666394 0.03037861
0.72318596 -0.097633153 0.030708283
0.72311598 -0.099914066 0.031795561
0.72245181 -0.10177705 0.032348335
0.72559679 0.049375862 0.033002973
0.72597766 0.047559895 0.032860279
0.72611046 0.04560747 0.031944782
0.72057289 -0.097924821 0.030444145
0.72037971 -0.10007649 0.031202883
0.72019988 -0.10209416 0.032264501
0.72253013 0.051181324 0.034109592
0.72336614 0.049853161 0.033570796
0.72324669 0.047723848 0.032382369
0.71860272 -0.098500408 0.030492336
0.71763635 -0.10019414 0.030722022
0.7175979 -0.10237649 0.032031924
0.71664965 -0.1039677 0.032484591
0.72117752 0.051232193 0.034147829
0.72107255 0.049543925 0.033130854
0.72096723 0.047847364 0.032113761
0.71533883 -0.10065153 0.030558407
0.71532792 -0.10238153 0.03187272
0.71529704 -0.10391683 0.032522827
0.71893239 0.051788736 0.034050047
0.71878552 0.049695686 0.032640487
0.71960533 0.047898583 0.032152265
0.71324712 -0.10066383 0.030616492
0.71302569 -0.10256615 0.031267703
0.71288949 -0.10447153 0.032583475
0.71622813 0.052376524 0.033854187
0.71625471 0.050365485 0.032474071
0.71078187 -0.10093493 0.030681998
0.71029139 -0.10255373 0.031121641
0.71027881 -0.1047691 0.032319248
0.71361536 0.054226521 0.034392864
0.71347702 0.052563183 0.033265948
0.71380693 0.050845273 0.032347649
0.70773059 -0.10227546 0.030751467
0.70753229 -0.10448875 0.031731963
0.70707893 -0.10631772 0.032723904
0.71089768 0.054673851 0.03414017
0.71117532 0.052720338 0.032775968
0.70571935 -0.10256363 0.030804127
0.7052471 -0.10450684 0.031545222
0.70463061 -0.10658698 0.032788962
0.70905685 0.054722831 0.033775121
0.70891178 0.053281732 0.032678723
0.70295882 -0.10452484 0.0313586
0.70255321 -0.1065992 0.032846659
0.70652568 0.054884043 0.033347219
0.70664662 0.053843178 0.032581508
0.70030898 -0.10473951 0.031329811
0.70025742 -0.10705835 0.032682955
0.69778007 -0.10500553 0.031330466
0.69743389 -0.10688821 0.032485604
0.69517463 -0.10489573 0.031070769
0.69485104 -0.1068164 0.032149017
0.69435215 -0.10854906 0.033052444
0.69840324 0.055869322 0.033584684
0.69290477 -0.10481037 0.031134933
0.69264162 -0.10654382 0.032011598
0.69254869 -0.10848124 0.033103436
0.69568336 0.057610817 0.034931034
0.69639528 0.055910524 0.033891171
0.69575125 0.054252911 0.032889515
0.69063491 -0.10472501 0.031199098
0.69029486 -0.10641535 0.031889409
0.68999553 -0.10850769 0.032888353
0.693663 0.057912625 0.034990758
0.69363725 0.05606034 0.033636183
0.69393533 0.0543212 0.032940865
0.68743891 -0.10628206 0.031603575
0.68752116 -0.10888696 0.032905281
0.68701869 -0.11143487 0.033223331
0.68741828 -0.11280488 0.033196419
0.69119179 0.058231387 0.035063267
0.69117022 0.05629563 0.033612311
0.68498802 -0.1062793 0.03176716
0.68479997 -0.1088206 0.032898426
0.68521523 -0.11136707 0.033274293
0.68471307 -0.11270315 0.033272892
0.68893749 0.058316164 0.035126954
0.68894827 0.056162667 0.033476084
0.68278158 -0.10602868 0.031652778
0.68257332 -0.10824897 0.033050299
0.68686008 0.058303952 0.035184652
0.68640792 0.056316838 0.033951581
0.68621778 0.05461143 0.033159047
0.68018359 -0.10600922 0.031808704
0.68031645 -0.10816411 0.033114135
0.68396091 0.058051653 0.035262436
0.68374622 0.056371529 0.034359753
0.68349397 0.054713864 0.033236027
0.67739683 -0.10601479 0.032052964
0.67779034 -0.10773635 0.033122659
0.6812557 0.058153387 0.035338908
0.68115264 0.056580275 0.034448266
0.68122405 0.054799221 0.033300221
0.67495084 -0.10606804 0.032711655
0.67496502 -0.10781999 0.033600539
0.67855048 0.058255117 0.035415381
0.67879766 0.056539029 0.034638405
0.67895418 0.054884583 0.033364385
0.67292994 -0.10405919 0.031699628
0.67259407 -0.10589366 0.03268829
0.67271066 -0.10773522 0.033664256
0.67629617 0.058339894 0.035479128
0.67641932 0.056515943 0.034704328
0.67599475 0.054768492 0.033445418
0.67020607 -0.10395676 0.031776637
0.67023456 -0.10572053 0.032665014
0.67386317 0.056698825 0.034972161
0.67348933 0.054635324 0.033513635
0.66726387 -0.10361873 0.031862438
0.66762859 -0.10560519 0.032429665
0.66745806 -0.10767392 0.033144206
0.67119879 0.056768987 0.035269439
0.67110199 0.054345001 0.034005493
0.66496396 -0.10337995 0.032214999
0.66490275 -0.10560606 0.032905698
0.66522902 -0.1075403 0.032624215
0.66854602 0.056373063 0.035672218
0.66892278 0.054174893 0.034135669
0.66840953 0.052552491 0.033631027
0.66213787 -0.1009247 0.032036185
0.6629681 -0.10295387 0.032353491
0.66261005 -0.10500674 0.033976883
0.66627461 0.056006826 0.035731196
0.66645837 0.054304101 0.034817159
0.66594428 0.052281383 0.033696502
0.66032195 -0.10085641 0.032087505
0.66046059 -0.1027535 0.032978922
0.66018903 -0.10455437 0.034049481
0.6640023 0.054203417 0.035523534
0.66345936 0.051789235 0.034093499
0.65675902 -0.098903336 0.032209218
0.65771127 -0.10057639 0.032608032
0.657947 -0.10275523 0.033910334
0.65883642 -0.1045035 0.034087718
0.66140652 0.053841274 0.035841733
0.66098857 0.051932231 0.034705848
0.66027522 0.050527841 0.034334332
0.65539706 -0.09885212 0.032247692
0.65516734 -0.10020952 0.03335008
0.65554899 -0.10189576 0.034209311
0.65940905 0.053555064 0.035894036
0.6585831 0.052164122 0.035700917
0.65822417 0.050197002 0.03488785
0.65779603 0.048403904 0.033878624
0.65306097 -0.098057359 0.032464802
0.65273607 -0.099971361 0.034059703
0.65663552 0.05185274 0.035951614
0.65656716 0.050048679 0.03593272
0.65559703 0.048278533 0.035939306
0.65005267 -0.095922507 0.032430261
0.65056187 -0.097583048 0.032841593
0.65066063 -0.099512935 0.034039348
0.65331405 0.049990356 0.036022604
0.65295386 0.047755573 0.035006404
0.6477192 -0.095129199 0.032647252
0.64806587 -0.097180389 0.03369382
0.64838749 -0.099051997 0.034441441
0.65113968 0.049801134 0.036080956
0.65074587 0.047668744 0.03495571
0.65042913 0.045952305 0.034055442
0.64561617 -0.093027033 0.032587111
0.64534414 -0.094937928 0.033473104
0.64582992 -0.097004145 0.034369498
0.64641738 -0.098616585 0.034501284
0.64886826 0.049434893 0.036139935
0.64835894 0.047797397 0.035760105
0.64850008 0.045361649 0.034245223
0.64317852 -0.092571534 0.032660246
0.64313173 -0.09451551 0.034094363
0.64378059 -0.096710794 0.034596652
0.64593279 0.047412138 0.036073297
0.64588416 0.045238979 0.034874082
0.64533216 0.043415353 0.034168065
0.63981783 -0.090080343 0.032782495
0.6406256 -0.091981962 0.033465683
0.64077955 -0.093865767 0.034379542
0.64335531 0.046932269 0.036264539
0.64343154 0.045065917 0.035615683
0.64303333 0.042674337 0.034598678
0.6420511 0.040810108 0.034229368
0.63761681 -0.088178486 0.032865703
0.63801384 -0.089758329 0.033211589
0.63847178 -0.091779262 0.034176022
0.64132178 0.044901006 0.036297768
0.64084685 0.042826407 0.035572439
0.64037025 0.040839851 0.034705281
0.64016634 0.039061893 0.034261674
0.63551378 -0.087293163 0.033363223
0.63575542 -0.089388423 0.034348637
0.63645989 -0.0913167 0.034862638
0.6388374 0.0428867 0.036343664
0.63810909 0.040767662 0.035639197
0.63790464 0.038607277 0.034605205
0.63318402 -0.084712416 0.033171952
0.63325024 -0.086577304 0.034206271
0.63354528 -0.088798255 0.034972817
0.63561112 0.040358305 0.036404341
0.63547099 0.038261022 0.035383642
0.63532799 0.036151394 0.034362793
0.63073403 -0.08185602 0.033130169
0.63078594 -0.084257208 0.034101516
0.63070041 -0.086591959 0.034934551
0.63146406 -0.088117786 0.03503859
0.63332766 0.037985705 0.036273837
0.63302958 0.035646491 0.035199136
0.63212389 0.033179436 0.034417719
0.62755406 -0.077795073 0.033265531
0.62815577 -0.079428293 0.033396661
0.62858933 -0.081504978 0.033972085
0.62869704 -0.084015884 0.034829438
0.62882721 -0.086211987 0.035133958
0.63170761 0.037433829 0.036479264
0.63080281 0.035555087 0.03635779
0.63037705 0.033280198 0.03532505
0.62989885 0.031391799 0.034959286
0.62597346 -0.077073932 0.033484548
0.62607354 -0.079181567 0.03440237
0.62636495 -0.08153297 0.035131395
0.62710929 -0.083889097 0.035208553
0.62861067 0.035141453 0.036539048
0.62794685 0.033510339 0.03653875
0.62775367 0.031201124 0.03571713
0.62749749 0.029008519 0.034641325
0.62322086 -0.072174855 0.033450931
0.62357163 -0.074102022 0.033752441
0.62372118 -0.076359093 0.034298301
0.62376124 -0.078723937 0.035236239
0.62452376 -0.080630265 0.035318106
0.62524164 0.033612072 0.036615223
0.62511569 0.031362813 0.036481649
0.62524998 0.028678823 0.035446495
0.62492085 0.026118245 0.034679741
0.62412882 0.023747973 0.034531534
0.6209144 -0.069056295 0.033551097
0.62144166 -0.071223311 0.034011662
0.62117821 -0.073915243 0.034905046
0.62125444 -0.076352067 0.035458416
0.62192112 -0.077822447 0.035422921
0.62304044 0.028621413 0.036368847
0.62285715 0.026041145 0.035816163
0.62246323 0.023349401 0.035017997
0.62175566 0.021108583 0.034567177
0.62125003 0.01976328 0.034565747
0.61806577 -0.064249858 0.033685803
0.61881858 -0.066628493 0.033762455
0.61904293 -0.069085725 0.03426984
0.61920244 -0.071400814 0.035197496
0.61899883 -0.073918618 0.035549253
0.62044239 0.026114374 0.03666237
0.6202125 0.023416951 0.036304206
0.61980653 0.021176696 0.035455912
0.61966246 0.019027054 0.034976572
0.61933088 0.01710682 0.034588546
0.61643624 -0.06131316 0.033965081
0.6164878 -0.06357687 0.034293294
0.61669242 -0.066079162 0.035036892
0.61692047 -0.068525933 0.035544276
0.61743492 -0.071104705 0.035625249
0.61754918 0.021254946 0.036686897
0.61736703 0.018910931 0.035964608
0.61722422 0.016281588 0.035137922
0.61659282 0.01383691 0.034912884
0.61640048 0.011759751 0.034608454
0.6138863 -0.056672655 0.034089595
0.61404562 -0.058844902 0.034415841
0.61440337 -0.061037675 0.034916222
0.61435694 -0.06342411 0.035513639
0.61493486 -0.065590791 0.035758406
0.61475855 0.019101605 0.036739767
0.61461145 0.016395601 0.036601454
0.61449009 0.013588208 0.03608337
0.61459959 0.011457256 0.035369694
0.61434239 0.0092483303 0.0349226
0.61370569 0.0066312114 0.034624338
0.61340123 0.004596184 0.034609348
0.61138743 -0.048536457 0.034052849
0.61165762 -0.051002376 0.034016907
0.61224359 -0.05348745 0.034305423
0.61191708 -0.055896759 0.035135627
0.61188406 -0.058395788 0.035801232
0.61240059 -0.060978912 0.035882115
0.61285251 0.016463339 0.036762357
0.61213738 0.013479182 0.036747903
0.61214 0.011366365 0.036556721
0.611992 0.0092568742 0.036369801
0.61175227 0.0065374114 0.036011577
0.61156362 0.0038824398 0.035470843
0.61160314 0.0015012678 0.03495723
0.61092484 -0.00076795463 0.034616441
0.6103676 -0.0034756353 0.034600735
0.6090939 -0.037080884 0.034248769
0.60904223 -0.03844326 0.034234494
0.60895622 -0.040713891 0.034210712
0.60930687 -0.043455705 0.034169346
0.60979795 -0.04612742 0.034458369
0.6095221 -0.048684947 0.0351035
0.6096378 -0.05105941 0.035573184
0.61016083 -0.053356364 0.035603583
0.60990053 -0.055465005 0.036015272
0.60955048 0.0087587871 0.036765456
0.6093204 0.0066597052 0.036747694
0.60934645 0.0038114572 0.036571205
0.60937369 0.0016579013 0.036188275
0.60907698 -0.00062875729 0.035669953
0.60874015 -0.0033793347 0.035091817
0.6086725 -0.0060049472 0.034868896
0.60881633 -0.008419794 0.034586936
0.60873026 -0.010690418 0.034563154
0.60840863 -0.01317957 0.034543395
0.60806978 -0.016122844 0.034518898
0.60798371 -0.018393468 0.034495115
0.60789764 -0.020664092 0.034471333
0.60779434 -0.023388844 0.034442812
0.60769105 -0.026113592 0.034414262
0.60743934 -0.028473932 0.034727544
0.60743821 -0.030707516 0.034797132
0.60755861 -0.033324119 0.034668326
0.60755014 -0.036006339 0.034859926
0.60742086 -0.038572449 0.035028517
0.60750484 -0.040799744 0.034821808
0.60751176 -0.04314696 0.035334498
0.60759944 -0.045768008 0.035746515
0.60747612 -0.048110761 0.036000788
0.60761738 -0.050185084 0.036139697
0.60641629 -0.008256874 0.035405993
0.60633045 -0.010521668 0.035382271
0.60626376 -0.013231031 0.035436273
0.60623336 -0.015930429 0.035572708
0.60603929 -0.018325187 0.035661668
0.60614264 -0.020553913 0.035430968
0.60599506 -0.023160286 0.035579383
0.60596454 -0.025851641 0.035715938
0.60564959 -0.028303966 0.0360021
0.60559845 -0.030568555 0.035993308
0.60541779 -0.033000231 0.036065608
0.60531509 -0.03570943 0.036037177
0.60526049 -0.038397733 0.036118895
0.60525405 -0.04106307 0.036310703
0.60516858 -0.043318141 0.036287069
0.60522169 -0.045320336 0.036262512
0.60350621 -0.015704516 0.036651701
0.60385448 -0.018427562 0.036610603
0.603769 -0.020682633 0.03658697
0.60378051 -0.022760693 0.036562681
0.6040318 -0.02566075 0.036522239
0.60392928 -0.028366838 0.036493897
0.6033929 -0.030604955 0.036483049
0.76534557 -0.019879088 0.02909717
0.76527649 -0.021701813 0.029078096
0.76519018 -0.023980208 0.029054224
0.76508653 -0.026714295 0.029025584
0.76498288 -0.029448379 0.028996944
0.76489657 -0.031726774 0.028973073
0.7648102 -0.03400518 0.028949231
0.76470655 -0.036739256 0.028920591
0.76463747 -0.038561981 0.028901488
0.76328599 -0.0020047752 0.029360592
0.76343602 -0.0040639015 0.029332668
0.76356882 -0.0065787109 0.029299974
0.76392072 -0.0093299216 0.02925846
0.76383436 -0.011608322 0.029234588
0.76374799 -0.013886728 0.029210746
0.7636444 -0.016620804 0.029182106
0.76354074 -0.019354884 0.029153466
0.76345438 -0.02163329 0.029129595
0.76336807 -0.023911688 0.029105723
0.76326442 -0.026645776 0.029077083
0.76316077 -0.029379852 0.029048473
0.76307446 -0.031658247 0.029024601
0.76298809 -0.033936657 0.029000729
0.76288444 -0.036670741 0.028972089
0.76278085 -0.039404821 0.028943449
0.76269448 -0.041683227 0.028919607
0.76235276 -0.043821633 0.028904468
0.76182985 -0.046442159 0.028888792
0.76152432 -0.048484161 0.028873771
0.76074278 0.0031104907 0.029490352
0.76130229 0.00067742262 0.029446721
0.76148117 -0.001480571 0.029416859
0.7613948 -0.0037589753 0.029392987
0.76129121 -0.0064930571 0.029364377
0.76118755 -0.0092271371 0.029335737
0.76110119 -0.011505538 0.029311866
0.76101482 -0.013783944 0.029287994
0.76091123 -0.016518019 0.029259354
0.76081824 -0.019265514 0.029119134
0.76075321 -0.021572307 0.028872043
0.76069969 -0.023897734 0.028513193
0.7605958 -0.026638035 0.028484523
0.76056957 -0.029205002 0.02887252
0.76024556 -0.031400003 0.028820515
0.76025492 -0.033833873 0.029078007
0.7601617 -0.036587935 0.028937697
0.76018929 -0.039238524 0.028767407
0.75987858 -0.041462652 0.028571755
0.75987494 -0.043858834 0.028973013
0.75977135 -0.046592914 0.028944373
0.75966769 -0.049327001 0.028915733
0.75940257 -0.051507413 0.028897971
0.7588203 -0.053630263 0.028889716
0.75851482 -0.055672258 0.028874665
0.75821692 0.0086814379 0.029624879
0.75877637 0.0062483707 0.029581249
0.75893795 0.003634694 0.029546618
0.75885421 0.00088941213 0.029294997
0.75879312 -0.00140638 0.028992325
0.75872195 -0.0036991639 0.028801143
0.75863916 -0.0064562457 0.028549343
0.75851423 -0.0091797682 0.028743714
0.75842768 -0.011463354 0.028719813
0.7583515 -0.013758265 0.028584301
0.75826842 -0.016523302 0.028332442
0.75816441 -0.019266713 0.028303683
0.75709474 -0.046630569 0.028351486
0.756953 -0.049272731 0.028769612
0.75684816 -0.051502615 0.028969139
0.75676179 -0.053781018 0.028945267
0.7566582 -0.05651509 0.028916627
0.75601482 -0.059046358 0.028905362
0.75656748 0.013306763 0.029724121
0.75693667 0.011011231 0.029687375
0.7568503 0.0087328302 0.029663533
0.75676394 0.0064544287 0.029639661
0.75673103 0.0036870539 0.028774947
0.75664151 0.00093759131 0.028579026
0.7565549 -0.001348584 0.028555065
0.75646824 -0.003634763 0.028531134
0.75636423 -0.0063781748 0.028502405
0.75626028 -0.0091215866 0.028473645
0.75617361 -0.011407764 0.028449714
0.75475258 -0.048901066 0.028057009
0.75463939 -0.051111393 0.028368145
0.75448418 -0.053695366 0.02900964
0.75438052 -0.056429438 0.02898103
0.75427693 -0.059163533 0.02895239
0.75419056 -0.061441936 0.028928518
0.75368321 -0.062791839 0.028927088
0.75398976 0.017510669 0.029844344
0.75439346 0.016126499 0.029817134
0.75477105 0.013830096 0.029669017
0.75469279 0.011090282 0.029306144
0.75462365 0.0088038947 0.02905938
0.75455511 0.0065133329 0.028812528
0.7544601 0.0037669512 0.028672367
0.75435615 0.0010235375 0.028643638
0.75472653 -0.0012798263 0.028606772
0.75463992 -0.0035660053 0.028582811
0.75227654 -0.053844705 0.02806893
0.75225514 -0.056355514 0.02854082
0.75193495 -0.058967307 0.028719723
0.75191289 -0.061356269 0.028992891
0.75182658 -0.063634679 0.028969049
0.75146759 -0.06622877 0.028949142
0.75103498 -0.068472423 0.028935313
0.75161391 0.021022491 0.029950976
0.7522096 0.018491451 0.029794037
0.75214964 0.016213577 0.029380381
0.75209886 0.013929266 0.028855264
0.75199491 0.011185854 0.028826505
0.75190824 0.0088996757 0.028802574
0.75182158 0.0066134986 0.028778613
0.74944735 -0.056027755 0.028122514
0.74936068 -0.058313936 0.028098583
0.74924976 -0.061028145 0.028181523
0.74912536 -0.063680887 0.028487891
0.74900222 -0.066327423 0.028794318
0.74890339 -0.068544373 0.028993815
0.74870747 -0.070704579 0.028974354
0.74783689 -0.072611235 0.028976619
0.7493611 0.023769133 0.030045331
0.74959224 0.02133367 0.029677361
0.74952257 0.018603154 0.029092014
0.74944299 0.016318578 0.028956711
0.74935633 0.014032401 0.02893278
0.74970949 0.011271799 0.028891116
0.7465142 -0.060954206 0.02814737
0.74641025 -0.063697621 0.02811864
0.74632359 -0.06598381 0.028094709
0.74623114 -0.068238057 0.028182447
0.74609959 -0.070817076 0.028712153
0.74598026 -0.073454067 0.029018581
0.74533689 -0.075985327 0.029007286
0.74489647 -0.077976622 0.028996617
0.74708128 0.027809726 0.030155391
0.74748498 0.026425555 0.030128181
0.74740726 0.024151705 0.029937416
0.74734825 0.021434113 0.029074013
0.74724424 0.018690702 0.029045284
0.74715757 0.016404524 0.029021323
0.74754536 0.014558394 0.028989255
0.74454725 -0.064543337 0.028160751
0.74418479 -0.066055998 0.028153419
0.74395156 -0.068184026 0.028135359
0.74384755 -0.070927449 0.02810663
0.74371576 -0.073468678 0.028747976
0.743599 -0.076102503 0.029054314
0.74351263 -0.078380913 0.029030472
0.74329746 -0.080046028 0.02901727
0.7444517 0.030646592 0.030261278
0.74517548 0.028679971 0.030218482
0.74522167 0.026524059 0.029858857
0.74516135 0.024259733 0.029278606
0.74506283 0.02152006 0.029138625
0.74527508 0.019070012 0.029104471
0.74225247 -0.06873066 0.028176367
0.74156213 -0.070841506 0.028171241
0.74145818 -0.073584914 0.028142512
0.74145973 -0.0761007 0.028488636
0.7411207 -0.078185357 0.028813481
0.74114865 -0.080573648 0.029071003
0.74016851 -0.082362108 0.029077649
0.74182218 0.033483457 0.030367196
0.74254596 0.031516839 0.03032437
0.74258453 0.028922774 0.029626429
0.74251091 0.026652785 0.029268831
0.74242431 0.024366608 0.0292449
0.74263656 0.021916559 0.029210716
0.73971647 -0.071229979 0.02821815
0.73897189 -0.073622234 0.028211296
0.73862898 -0.075767957 0.028196096
0.73854238 -0.078054138 0.028172135
0.73842245 -0.080579042 0.028813332
0.73820227 -0.083086744 0.029124022
0.73733169 -0.0849934 0.029126287
0.74031526 0.033844344 0.0304133
0.74005765 0.03164506 0.029769838
0.73985511 0.029042099 0.029370308
0.73976845 0.02675592 0.029346347
0.74031436 0.02505647 0.029311568
0.73649019 -0.075840153 0.028254807
0.73579985 -0.077951007 0.028249681
0.7356959 -0.080694407 0.028220952
0.73570108 -0.083117582 0.02881813
0.73584634 -0.085667677 0.029159844
0.73768574 0.036681212 0.030519217
0.73821461 0.034538843 0.030368626
0.73787093 0.031986233 0.029602379
0.73756969 0.029128043 0.029434919
0.73795742 0.02728191 0.029402822
0.73349708 -0.078322291 0.028309494
0.73341048 -0.080608465 0.028285563
0.73349601 -0.083441496 0.028393418
0.73365331 -0.085805669 0.029108167
0.73338783 -0.087948143 0.029202014
0.73260367 -0.089378908 0.029207319
0.73539835 0.038516495 0.030604035
0.73556733 0.036925133 0.030414253
0.73549223 0.034700815 0.02955699
0.73565435 0.032078218 0.02952224
0.73623306 0.03009408 0.029483259
0.73123497 -0.080641121 0.028345734
0.73102105 -0.08326593 0.028321415
0.73105752 -0.085703321 0.0284352
0.73073065 -0.087727979 0.028903335
0.73063749 -0.090103537 0.029253721
0.73207688 0.041151214 0.03072688
0.73291898 0.03930302 0.030570954
0.73283637 0.037090126 0.029658467
0.73306602 0.035097312 0.029629111
0.72853482 -0.083303258 0.028390199
0.72819191 -0.085448965 0.028375
0.72810525 -0.087735146 0.028351068
0.72801214 -0.090158552 0.029215008
0.72774875 -0.092299365 0.029308796
0.73056996 0.041512106 0.030772984
0.7306391 0.039420042 0.030246705
0.73055094 0.037176073 0.029723078
0.73095602 0.035787176 0.029695779
0.72605306 -0.085521162 0.02843371
0.72581983 -0.087649204 0.02841568
0.72571903 -0.090332203 0.028554261
0.72563261 -0.09276738 0.029362321
0.72510797 -0.094572984 0.029356092
0.72762525 0.044056606 0.030884296
0.72846562 0.04220951 0.03072843
0.72835219 0.039548196 0.029811621
0.72850275 0.037482042 0.029783607
0.72388625 -0.087942794 0.028466105
0.72343045 -0.090306662 0.028451532
0.7233448 -0.092803784 0.029092133
0.72295916 -0.095100611 0.029409826
0.72563469 0.044496521 0.030944765
0.72572041 0.042362928 0.030250818
0.72572827 0.039761342 0.02988711
0.72098112 -0.090519816 0.028517276
0.72072941 -0.092637546 0.028642803
0.72044069 -0.095045976 0.029298693
0.71999353 -0.097118624 0.029469132
0.72310448 0.045139272 0.031022608
0.72297114 0.042497877 0.029995412
0.7230708 0.040296271 0.029967278
0.71836787 -0.091032058 0.028584093
0.71785879 -0.092386574 0.028582662
0.71777439 -0.094972119 0.028972089
0.71769863 -0.097488642 0.029528737
0.71719128 -0.09883856 0.029527307
0.72089595 0.047047649 0.031106085
0.72081441 0.045257993 0.030754268
0.72068572 0.042583823 0.030060023
0.72061646 0.040754881 0.03004086
0.71557337 -0.092300639 0.028647274
0.71548325 -0.094949096 0.028869361
0.71542096 -0.097402997 0.02959314
0.71535188 -0.099225715 0.029574037
0.71844989 0.047504697 0.031179428
0.71851391 0.045389701 0.030375183
0.71840036 0.042669766 0.030124635
0.7192452 0.04080645 0.030079633
0.71346736 -0.092313021 0.028705746
0.71320128 -0.09450087 0.028687924
0.71313953 -0.096988156 0.029327959
0.7129367 -0.099330455 0.029640049
0.71573508 0.049295209 0.03127566
0.71588385 0.047728177 0.030919999
0.71588039 0.045626327 0.030228883
0.71660668 0.043652996 0.030185908
0.71054548 -0.092111565 0.028789401
0.71045882 -0.094397724 0.02876547
0.71040326 -0.096885271 0.029405296
0.71032381 -0.09949296 0.029710919
0.70934367 -0.10128142 0.029717594
0.71311557 0.049817458 0.031354606
0.71310598 0.047905631 0.030332386
0.71327388 0.046296708 0.03030917
0.70771629 -0.0942946 0.028842986
0.70763898 -0.096909985 0.029148459
0.70759064 -0.099390179 0.029788196
0.70728517 -0.10143217 0.029773146
0.71095431 0.050197281 0.03108564
0.71082056 0.047991578 0.030396998
0.70543092 -0.09420865 0.028907597
0.70532691 -0.096952058 0.028878868
0.70526773 -0.09949895 0.029351383
0.70512515 -0.1018529 0.029828429
0.70876938 0.052066978 0.031501502
0.70865631 0.050309587 0.030928612
0.70872146 0.048162095 0.030457377
0.70373183 -0.09475527 0.028948605
0.70315146 -0.096984714 0.028939039
0.70294803 -0.099565759 0.029026121
0.7029317 -0.10195294 0.029888332
0.70526332 0.055849466 0.031642705
0.70591778 0.052843645 0.031446934
0.70587927 0.050466835 0.030563056
0.70672411 0.048603512 0.030518085
0.70117849 -0.097711831 0.02898559
0.70019501 -0.099506393 0.028992265
0.70016277 -0.10198234 0.029631615
0.69967395 -0.10365576 0.029959381
0.7038312 0.055513803 0.031178474
0.70371342 0.053274114 0.030822456
0.7036922 0.050732236 0.030627012
0.69803888 -0.10003582 0.029046178
0.69784409 -0.1020297 0.029362082
0.6972003 -0.1039278 0.030025095
0.70169961 0.055542782 0.030938029
0.70141244 0.053382136 0.030721009
0.701563 0.051315989 0.030693024
0.6965037 -0.10028335 0.029086053
0.69553757 -0.10162067 0.029097557
0.69526601 -0.10353395 0.029654711
0.69947028 0.055458881 0.031799465
0.69872016 0.053426418 0.031241119
0.69840389 0.051297422 0.030780733
0.69279504 -0.10151754 0.029175073
0.69279683 -0.10353273 0.029818743
0.69615245 0.053210881 0.031722993
0.69570279 0.051111184 0.030853778
0.69005257 -0.1014144 0.029252589
0.68996727 -0.1035953 0.029930145
0.69317591 0.053305287 0.031949848
0.69353801 0.05093094 0.030911952
0.68776715 -0.10132846 0.0293172
0.68740833 -0.10384925 0.030116707
0.690992 0.053689081 0.031681597
0.69126993 0.051474124 0.030981362
0.68548173 -0.10124251 0.029381812
0.68514955 -0.10364047 0.029808074
0.68871176 0.053774834 0.03174606
0.68852746 0.051577259 0.031058878
0.6827392 -0.10113938 0.029459357
0.68271875 -0.10367864 0.02993089
0.68598473 0.053400602 0.031984389
0.68578494 0.051680394 0.031136423
0.67999673 -0.10103624 0.029536873
0.67998087 -0.10357568 0.030008286
0.68327701 0.053481974 0.032227427
0.68349952 0.05176634 0.031201035
0.67771131 -0.1009503 0.029601485
0.67736387 -0.10350877 0.03030929
0.6809994 0.053567629 0.03229183
0.68121409 0.051852286 0.031265616
0.67542589 -0.10086435 0.029666096
0.67515188 -0.10317339 0.030314088
0.67872173 0.053653281 0.032356203
0.67847162 0.051955421 0.031343162
0.67227829 -0.099372327 0.029770911
0.67268336 -0.10076122 0.029743612
0.6727308 -0.10277812 0.030386031
0.67616731 0.053658079 0.032427371
0.67573327 0.051587217 0.031526297
0.66977298 -0.099049173 0.029844373
0.6698333 -0.10079216 0.02996552
0.67012197 -0.1027602 0.030542225
0.67369366 0.05338604 0.032493085
0.67349243 0.05164491 0.031811655
0.67289996 0.049875509 0.031474262
0.66772479 -0.0987432 0.029904932
0.66774738 -0.1008306 0.030380458
0.66776967 -0.10291229 0.030856043
0.6723271 0.05343743 0.032531738
0.67125571 0.05170314 0.032096952
0.67083442 0.049724244 0.031530023
0.66543937 -0.098657258 0.029969543
0.6655032 -0.10067893 0.030611396
0.66596484 -0.10238809 0.03091234
0.66870373 0.051503807 0.032467395
0.66831183 0.04959017 0.031598717
0.66780275 0.048235647 0.031597257
0.66269684 -0.098554119 0.030047059
0.66296339 -0.1003358 0.031019539
0.66608244 0.051162455 0.032679319
0.66589051 0.049706642 0.03226772
0.66595709 0.04784717 0.031644166
0.66033041 -0.098190397 0.030117124
0.66012931 -0.099886984 0.031103611
0.66374087 0.049583524 0.032526255
0.66354436 0.047594484 0.03170839
0.65729851 -0.096061669 0.030226052
0.65819931 -0.097838782 0.030402809
0.65786892 -0.099345654 0.031172752
0.66141772 0.049649455 0.032791734
0.66093892 0.047566436 0.031891763
0.65530121 -0.09562026 0.030286759
0.6555739 -0.097564429 0.030923724
0.65894407 0.049377419 0.032857448
0.65834135 0.0475352 0.032102674
0.65191752 -0.093111992 0.030409873
0.65282238 -0.094891317 0.030586481
0.65313017 -0.096794531 0.031334102
0.65592659 0.047749151 0.032088965
0.65535748 0.04595634 0.031917423
