# .PCD v0.7 - Point Cloud Data file format
VERSION 0.7
FIELDS x y z
SIZE 4 4 4
TYPE F F F
COUNT 1 1 1
WIDTH 1384
HEIGHT 1
VIEWPOINT 0 0 0 1 0 0 0
POINTS 1384
DATA ascii
0.40946659 0.089559868 0.037193965
0.41100588 0.089743935 0.037152395
0.41583782 0.089562014 0.037013128
0.4251143 0.089616127 0.036750402
0.35474914 0.092021734 0.03677474
0.35732046 0.092237622 0.036704227
0.360019 0.092511244 0.036630776
0.36289537 0.092528015 0.036549315
0.36532998 0.092436351 0.036479138
0.36735883 0.092359968 0.036420669
0.37887183 0.092721671 0.037098452
0.38101742 0.09237092 0.037033502
0.38344276 0.09227962 0.036963597
0.38586804 0.092188306 0.036893699
0.38869753 0.092081785 0.036812142
0.3916117 0.092266552 0.036731545
0.39396772 0.092288285 0.036664914
0.39632139 0.092442624 0.036599871
0.39883363 0.092510015 0.036529329
0.40144855 0.092272386 0.036652457
0.40444601 0.092209488 0.037367027
0.40707099 0.092312343 0.037293691
0.4094179 0.092334002 0.037227318
0.4111129 0.092563547 0.037181843
0.42496139 0.091961488 0.036781769
0.35526273 0.094847836 0.036792725
0.35730699 0.095177375 0.036738489
0.36014739 0.095070422 0.036656622
0.36298779 0.094963484 0.036574759
0.36542243 0.094871826 0.036504582
0.36785704 0.094780162 0.036434412
0.37600991 0.095528983 0.037212055
0.37828001 0.094903596 0.037140399
0.38110951 0.094797067 0.037058845
0.38353479 0.094705753 0.036988944
0.38596013 0.094614439 0.036919042
0.38852161 0.094829485 0.036848806
0.39120978 0.095102072 0.03677563
0.3940751 0.095118783 0.036694482
0.39650044 0.095027477 0.036624577
0.39892572 0.094936147 0.036554679
0.40153572 0.094939902 0.037117295
0.40426669 0.094918869 0.037403345
0.40717798 0.095131963 0.037323151
0.40959397 0.095041007 0.037253514
0.41153282 0.095129356 0.037199486
0.41526181 0.095634371 0.037099451
0.41724455 0.09475296 0.03703301
0.42006317 0.094646841 0.036951765
0.42249441 0.094958685 0.036886346
0.4249104 0.094867729 0.036816709
0.35577634 0.097673953 0.036810707
0.35739943 0.097612843 0.036763925
0.35983407 0.097521178 0.036693759
0.36267447 0.097414233 0.036611889
0.36551484 0.097307295 0.036530029
0.36794949 0.097215638 0.036459852
0.37394103 0.097901508 0.037298128
0.37554252 0.097436279 0.037247293
0.37825906 0.097260378 0.037168153
0.38104296 0.097310171 0.037089694
0.38364223 0.097536258 0.037018511
0.38606751 0.097444944 0.03694861
0.38850817 0.097757995 0.036882926
0.39133766 0.097651459 0.036801379
0.39901781 0.09736231 0.036580015
0.40156829 0.097597718 0.037177321
0.40404844 0.097670056 0.037441239
0.406867 0.097563945 0.037360001
0.4096857 0.097457811 0.03727876
0.4120048 0.097471341 0.037213083
0.41464138 0.09750174 0.037138581
0.41734496 0.097399935 0.037060659
0.42004985 0.097564064 0.036985766
0.42260143 0.097778291 0.036915794
0.42501739 0.097687334 0.036846165
0.42743334 0.09759637 0.036776528
0.3509995 0.10029276 0.036976486
0.35240832 0.10070427 0.036941241
0.35518196 0.10036757 0.036858626
0.35749185 0.10004832 0.036789373
0.35992649 0.099956654 0.036719196
0.36265346 0.099780075 0.036639754
0.36549899 0.10018461 0.036563627
0.37400243 0.099518932 0.037315026
0.37563461 0.099862419 0.037272643
0.37814462 0.10006242 0.037203692
0.38090479 0.10006892 0.037125412
0.38374963 0.10036677 0.037048083
0.38617492 0.10027545 0.036978174
0.38860023 0.10018414 0.03690828
0.39102554 0.10009282 0.036838371
0.39385507 0.099986285 0.036756821
0.40157288 0.10015037 0.037139904
0.40414014 0.10008688 0.037466485
0.40977737 0.099874631 0.037304007
0.4122777 0.10007387 0.037235323
0.41462466 0.10009551 0.03716895
0.41696924 0.10024925 0.037104163
0.41987452 0.10030123 0.037022285
0.42269313 0.10019512 0.036941044
0.42510912 0.10010415 0.036871411
0.42752507 0.10001318 0.036801778
0.350265 0.10235287 0.037021086
0.35230926 0.1026824 0.036966853
0.35514966 0.10257546 0.036884982
0.36010623 0.10255144 0.036743999
0.36246893 0.10270637 0.036678709
0.36522639 0.10288398 0.036602478
0.36816514 0.10289841 0.036519215
0.37223825 0.10315155 0.036406502
0.37590978 0.10237166 0.037293747
0.37809569 0.10284726 0.037237171
0.38076663 0.10282769 0.037161123
0.38355055 0.1028775 0.037082665
0.38626701 0.10270159 0.037003525
0.38869229 0.10261029 0.036933616
0.3911176 0.10251897 0.036863718
0.39394712 0.10241243 0.036782164
0.40170991 0.10282025 0.036899988
0.40423191 0.10250369 0.037491731
0.412229 0.10284799 0.037268676
0.41473165 0.10291512 0.037198406
0.41714764 0.10282415 0.037128769
0.41985366 0.10264893 0.037049934
0.42262682 0.10269853 0.036971774
0.42520085 0.10252097 0.036896661
0.42761678 0.10243 0.036827024
0.35215515 0.10504586 0.036998462
0.35494977 0.10509584 0.036919706
0.35769209 0.10532519 0.036844496
0.36005715 0.10534701 0.036777608
0.36257672 0.10554776 0.036708396
0.36501142 0.10545611 0.036638219
0.36785182 0.10534915 0.036556356
0.37069219 0.10524222 0.036474485
0.37264603 0.10533126 0.036420047
0.37824407 0.10462338 0.037253428
0.3809593 0.10506108 0.037181392
0.38352954 0.10523427 0.037110418
0.38878438 0.10503641 0.036958966
0.39122507 0.10534947 0.036893282
0.39365032 0.10525814 0.036823381
0.39649519 0.10555598 0.036746055
0.40175003 0.10535814 0.036594596
0.40417531 0.10526683 0.036524698
0.40655553 0.10515144 0.03683098
0.41224942 0.10550952 0.037298769
0.41482338 0.10533193 0.037223652
0.41723934 0.10524097 0.037154015
0.41965526 0.10515001 0.037084386
0.422474 0.1050439 0.037003145
0.42530787 0.10534058 0.036926109
0.42772385 0.10524959 0.03685648
0.35226813 0.10695212 0.037017226
0.35489792 0.10664985 0.036939085
0.35802743 0.10804186 0.036866285
0.36023456 0.1080749 0.036804006
0.36510384 0.10789159 0.036663666
0.36794421 0.10778463 0.036581796
0.37078464 0.1076777 0.036499932
0.37322953 0.10785665 0.036432583
0.38160059 0.10773651 0.037194025
0.38321745 0.10767563 0.037147418
0.38889179 0.10786694 0.03698853
0.39133248 0.10817997 0.036922857
0.39375773 0.10808865 0.036852948
0.39647424 0.10791275 0.036773808
0.40184206 0.10778427 0.036619946
0.40426737 0.10769297 0.036550038
0.40677962 0.10776035 0.036479495
0.4092778 0.10796098 0.037411377
0.41491508 0.10774875 0.037248895
0.41733104 0.10765778 0.037179265
0.41983137 0.10785701 0.037110578
0.42240399 0.10775491 0.03703637
0.42512476 0.10824444 0.036964774
0.42783082 0.10806922 0.036885932
0.35849333 0.11037618 0.036879949
0.36032704 0.11051038 0.036829449
0.36519623 0.11032706 0.036689106
0.36763087 0.11023539 0.036618933
0.37048668 0.11053436 0.036541305
0.37325752 0.1105409 0.036462728
0.37517613 0.11096755 0.03641317
0.38175404 0.11178008 0.037236243
0.38332486 0.11050612 0.037176982
0.38594025 0.1105011 0.037102677
0.38884062 0.11078439 0.037023608
0.39142454 0.1106061 0.036948193
0.39384985 0.11051479 0.036878299
0.39627513 0.11042348 0.03680839
0.40437481 0.11052345 0.036579609
0.40678072 0.11041064 0.036873821
0.40936953 0.1103778 0.037436619
0.41495249 0.11050376 0.037279587
0.41743806 0.11047739 0.037208717
0.4197827 0.11063115 0.037143931
0.42228529 0.11069828 0.037073657
0.4251039 0.11059215 0.03699242
0.42792258 0.11048604 0.036911178
0.35876554 0.11219514 0.036893189
0.36041942 0.11294586 0.036854886
0.36285406 0.11285421 0.03678472
0.36537364 0.11305497 0.036715504
0.36773869 0.11307678 0.036648612
0.37034798 0.11330374 0.036577158
0.3731426 0.11335373 0.036498394
0.3818154 0.11339751 0.037253153
0.38343227 0.11333663 0.037206549
0.38585755 0.11324532 0.037136652
0.39151663 0.11303226 0.036973547
0.39394188 0.11294094 0.036903638
0.39636719 0.11284962 0.036833741
0.39900228 0.1129529 0.036760122
0.40457961 0.11310168 0.037270501
0.40704527 0.11288558 0.037531506
0.4095479 0.11295271 0.037461232
0.41460267 0.11317728 0.037320323
0.41754505 0.11329702 0.037238173
0.41996104 0.11320606 0.03716854
0.42237699 0.1131151 0.037098907
0.42495099 0.1129375 0.03702379
0.42772418 0.11298711 0.036945634
0.34225905 0.11603239 0.036405519
0.36059919 0.11554064 0.036879689
0.36296189 0.11569557 0.036814399
0.36532459 0.11585052 0.036749113
0.36784652 0.11591816 0.036678299
0.37028116 0.1158265 0.036608122
0.37312159 0.11571956 0.036526259
0.38352436 0.11576276 0.037231896
0.38594964 0.11567146 0.037161991
0.39145005 0.11554535 0.037004389
0.39411867 0.11565839 0.036929939
0.39647463 0.11568013 0.036863305
0.39882827 0.11583446 0.036798265
0.40467146 0.115523 0.037295792
0.40715227 0.11570519 0.037560958
0.40949926 0.11572685 0.037494585
0.41199952 0.11592606 0.037425898
0.41457349 0.11574849 0.037350781
0.41734675 0.11579809 0.037272628
0.42005274 0.11562286 0.03719379
0.42246872 0.11553191 0.03712415
0.42488468 0.11544093 0.037054524
0.42771858 0.11573762 0.036977492
0.3422384 0.11817543 0.036430798
0.35823128 0.11953212 0.036992908
0.35980812 0.11825329 0.036933403
0.36266395 0.11855226 0.03685578
0.36550432 0.11844531 0.036773909
0.36793897 0.11835364 0.036703743
0.37037361 0.11826197 0.036633566
0.37280819 0.11817031 0.036563396
0.383843 0.11806469 0.037249379
0.38604173 0.11809761 0.037187338
0.39131188 0.11830413 0.037040111
0.39406973 0.11844324 0.036963418
0.39658204 0.11851063 0.036892876
0.39900732 0.11841932 0.036822971
0.40426216 0.11822148 0.036671516
0.40715218 0.1183874 0.036924884
0.40977213 0.11832935 0.037516825
0.41209126 0.11834288 0.037451144
0.41450718 0.11825193 0.037381515
0.41732582 0.1181458 0.037300274
0.42014447 0.11803968 0.037219033
0.42257574 0.11835152 0.037153609
0.4249917 0.11826056 0.037083972
0.42742297 0.11857239 0.037018552
0.34203732 0.12093735 0.036468334
0.34361506 0.12105282 0.036424875
0.35829291 0.12115577 0.037009876
0.35991597 0.12109467 0.03696309
0.36264291 0.12091808 0.036883637
0.36543754 0.12096808 0.036804881
0.36803138 0.12078912 0.036729179
0.37046602 0.12069746 0.036659013
0.37298799 0.1207651 0.036588196
0.37567219 0.12082663 0.036512699
0.38430715 0.12039006 0.037262999
0.38614917 0.12092811 0.037216906
0.38850516 0.12094983 0.037150271
0.39101508 0.12114985 0.03708132
0.3938446 0.12104332 0.036999773
0.3966741 0.12093678 0.036918215
0.39909944 0.12084545 0.036848318
0.40152472 0.12075415 0.036778409
0.40435421 0.12064763 0.036696862
0.40719911 0.12094543 0.036619533
0.40955272 0.12109979 0.036554493
0.41212991 0.12094152 0.037035339
0.4199324 0.12095198 0.037258614
0.42268273 0.12117115 0.037183061
0.42509872 0.12108018 0.037113428
0.42751467 0.12098922 0.037043795
0.34255287 0.12377428 0.036486387
0.34418216 0.12371293 0.036439434
0.34584239 0.12446653 0.036400974
0.35835451 0.12277942 0.037026823
0.36000839 0.12353013 0.036988527
0.36244303 0.12343848 0.036918357
0.3652834 0.12333152 0.03683649
0.36812386 0.12322459 0.036754623
0.37057388 0.12353884 0.036688689
0.3729389 0.12356066 0.036621805
0.37545851 0.12376143 0.036552593
0.37829891 0.12365448 0.036470722
0.38032779 0.1235781 0.03641225
0.38462436 0.12341513 0.037288845
0.38625655 0.12375861 0.037246477
0.39393666 0.12346945 0.037025113
0.39676619 0.12336291 0.036943566
0.3991915 0.12327161 0.036873657
0.40170145 0.12347161 0.036804713
0.40680426 0.12367027 0.036662135
0.40973178 0.12368463 0.036579203
0.41230476 0.12365591 0.037051544
0.41995585 0.12369405 0.037289549
0.42277443 0.12358795 0.037208308
0.42519039 0.12349698 0.037138678
0.42760637 0.12340602 0.037069038
0.43002236 0.12331506 0.036999412
0.34427494 0.12615773 0.036464971
0.34611565 0.12629247 0.036414266
0.36010087 0.12596561 0.037013967
0.36253545 0.12587395 0.036943801
0.36531079 0.12583721 0.036864586
0.36800414 0.12619068 0.036792196
0.3706817 0.12638023 0.036718376
0.37311631 0.12628856 0.036648199
0.37555096 0.12619689 0.036578033
0.37814477 0.12601793 0.036502335
0.38052547 0.12611121 0.036435828
0.38432756 0.12626085 0.037330072
0.38634863 0.12618476 0.037271816
0.38877395 0.12609343 0.037201919
0.39119923 0.12600213 0.03713201
0.39362454 0.1259108 0.037062112
0.39655206 0.12592518 0.036979169
0.39929888 0.1261021 0.036903229
0.40165251 0.12625644 0.036838192
0.40953267 0.12619537 0.036613781
0.41234663 0.12627247 0.037201777
0.41481292 0.12630796 0.037465669
0.41964489 0.12612602 0.037326403
0.42246351 0.12601991 0.037245162
0.42528215 0.1259138 0.037163924
0.42769814 0.12582284 0.037094288
0.43012941 0.12613466 0.03702886
0.34436771 0.12860255 0.036490507
0.34658337 0.12863572 0.036427993
0.35494906 0.12941152 0.037199929
0.35778943 0.12930459 0.037118066
0.36028057 0.12856039 0.03703877
0.36264333 0.12871534 0.03697348
0.36500835 0.12873715 0.036906593
0.36793372 0.12892266 0.036825683
0.37077412 0.12881571 0.036743812
0.37320873 0.12872404 0.036673646
0.37564337 0.12863237 0.036603469
0.37807801 0.12854071 0.036533304
0.38091841 0.12843378 0.036451433
0.38367334 0.12883078 0.037378259
0.38614953 0.12869549 0.037306402
0.39129132 0.12842828 0.037157357
0.39373195 0.12874131 0.037091676
0.3963882 0.12864129 0.037015118
0.39924771 0.12901956 0.036938302
0.4018316 0.1288413 0.036862895
0.40951172 0.12855212 0.036641534
0.41239008 0.1287009 0.037461977
0.41490465 0.12872475 0.037490919
0.41732064 0.1286338 0.037421279
0.41973659 0.12854284 0.037351649
0.42255524 0.12843673 0.037270408
0.42538917 0.1287334 0.037193377
0.42780516 0.12864242 0.037123743
0.43023637 0.12895429 0.037058316
0.43265235 0.12886332 0.036988683
0.35476413 0.13096313 0.037223063
0.3576346 0.13134286 0.037145946
0.36023152 0.13135596 0.037072375
0.36275113 0.1315567 0.037003167
0.36518577 0.13146506 0.03693299
0.36762038 0.13137339 0.03686282
0.37046078 0.13126644 0.036780953
0.37330118 0.1311595 0.036699086
0.37573582 0.13106783 0.036628917
0.3782776 0.13122775 0.036649551
0.38077879 0.13099268 0.037151858
0.38329905 0.13115877 0.037415709
0.38612857 0.13105224 0.037334159
0.38897347 0.13135009 0.037256829
0.39139876 0.13125877 0.037186924
0.39383939 0.13157181 0.037121251
0.39626467 0.13148052 0.037051342
0.39909419 0.13137397 0.036969792
0.40192369 0.13126744 0.036888238
0.40943429 0.13101767 0.036763102
0.41206515 0.1311786 0.037599798
0.4148384 0.13122821 0.037521649
0.4199127 0.13124986 0.037377842
0.42225957 0.1312715 0.037311468
0.42499584 0.13144773 0.037235823
0.42791212 0.13146204 0.037153199
0.4303281 0.1313711 0.037083562
0.43274406 0.13128012 0.037013933
0.3550055 0.13357593 0.037246313
0.35735795 0.13399547 0.037184369
0.3602497 0.13417116 0.037104301
0.36527818 0.13390054 0.036958437
0.3677128 0.13380888 0.03688826
0.37043974 0.13363229 0.036808815
0.38096583 0.13367623 0.037510954
0.38347811 0.13374361 0.037440412
0.38583174 0.13389798 0.037375376
0.38857862 0.13407491 0.037299436
0.39150617 0.13408928 0.037216496
0.39393148 0.13399796 0.037146587
0.39635676 0.13390665 0.037076693
0.39907324 0.13373075 0.036997546
0.4018572 0.13378055 0.036919087
0.40934286 0.13356255 0.037522648
0.41186681 0.13367969 0.037634254
0.41477823 0.13389276 0.037554059
0.41986394 0.13402399 0.037411194
0.42236662 0.13409111 0.037340924
0.42507258 0.13391589 0.037262086
0.42784581 0.13396549 0.037183929
0.4304198 0.1337879 0.037108812
0.43283579 0.13369694 0.037039176
0.35725522 0.13664155 0.037217781
0.36009562 0.13653462 0.03713591
0.36293599 0.13642767 0.037054047
0.3653706 0.13633601 0.036983874
0.36780524 0.13624436 0.036913704
0.37032488 0.13644511 0.036844488
0.37301758 0.13653587 0.036769096
0.37846762 0.13650459 0.036947504
0.38103122 0.13615441 0.037426498
0.38335791 0.13617441 0.03734678
0.38540965 0.13657302 0.036917962
0.38969144 0.13604729 0.037290573
0.39159822 0.13651541 0.037241835
0.3988741 0.13624147 0.037032131
0.401719 0.1365393 0.036954802
0.40942833 0.13660295 0.036847845
0.41191828 0.13625276 0.037328951
0.41446999 0.13658866 0.037593875
0.42004231 0.1365989 0.037435807
0.42245829 0.13650793 0.037366167
0.42487428 0.13641697 0.037296537
0.42769292 0.13631085 0.037215296
0.43059817 0.13636282 0.037133418
0.43295488 0.13635945 0.037399966
0.34965768 0.13901268 0.036460295
0.35128701 0.13895132 0.036413342
0.35786811 0.13851543 0.037221979
0.36004591 0.13879478 0.037163366
0.36273611 0.13894805 0.037088767
0.36554801 0.13906392 0.037010275
0.3679131 0.13908572 0.036943384
0.37027577 0.13924067 0.036878098
0.37295696 0.13922103 0.036801755
0.37575158 0.13927102 0.036722995
0.3784785 0.13909443 0.03664355
0.38091314 0.13900277 0.036573377
0.38334778 0.13891111 0.036503211
0.38578239 0.13881946 0.036433034
0.38746709 0.14038198 0.036403209
0.39169031 0.13894156 0.037267186
0.39898154 0.13907199 0.037061699
0.40142217 0.13938503 0.036996022
0.40425166 0.13927849 0.036914468
0.4095065 0.13908064 0.036763012
0.41193178 0.13898931 0.036693111
0.41456559 0.13924278 0.037371628
0.41731539 0.13912183 0.037542287
0.42255005 0.13892472 0.037391417
0.42496598 0.13883379 0.037321784
0.42762297 0.13902187 0.037248526
0.43031707 0.13925289 0.037174705
0.43306574 0.13912393 0.037539836
0.34730655 0.14154948 0.036556277
0.34975046 0.1414575 0.036485836
0.36049104 0.14160088 0.037183069
0.36273047 0.14171982 0.037120868
0.36802089 0.14192711 0.03697307
0.37045553 0.14183545 0.036902893
0.37289014 0.14174378 0.036832727
0.37573054 0.14163685 0.036750857
0.37857094 0.14152989 0.036668994
0.38100556 0.14143823 0.036598817
0.38352516 0.14163901 0.036529604
0.38589025 0.14166082 0.036462717
0.38773933 0.14220095 0.036416449
0.39142048 0.14152856 0.037304655
0.39399642 0.14180498 0.037234716
0.39908898 0.14190248 0.03709127
0.40151423 0.14181116 0.037021365
0.40434375 0.14170463 0.036939811
0.40959856 0.14150679 0.036788359
0.41202387 0.14141546 0.036718454
0.41445717 0.14168134 0.037252732
0.41716248 0.14146717 0.037573658
0.42265704 0.14174436 0.037420873
0.425073 0.14165339 0.037351239
0.42750424 0.14196523 0.037285812
0.43032286 0.14185911 0.037204575
0.4331415 0.14175299 0.037123337
0.34985873 0.14430976 0.036515635
0.3539629 0.14497134 0.036406755
0.36015096 0.14441846 0.037225194
0.36243254 0.14457648 0.037162244
0.36811331 0.1443626 0.03699851
0.37054795 0.14427093 0.036928341
0.37298259 0.14417928 0.036858164
0.37541717 0.14408761 0.036787998
0.37838235 0.14420824 0.036705207
0.38111341 0.14427961 0.036628503
0.38862994 0.14443164 0.036962572
0.39101207 0.14434169 0.037348665
0.39392623 0.14452648 0.037268069
0.39675575 0.14441994 0.037186518
0.39918101 0.14432862 0.03711661
0.40160629 0.14423734 0.037046712
0.40403163 0.14414601 0.036976803
0.40686116 0.14403948 0.036895256
0.41213131 0.14424597 0.036748022
0.41464314 0.14422745 0.037343495
0.41718051 0.14426079 0.037605342
0.42276406 0.14456397 0.037450328
0.42518002 0.14447302 0.037380692
0.42759597 0.14438206 0.037311062
0.43016997 0.14420447 0.037235942
0.43294317 0.14425407 0.037157789
0.34996697 0.14716202 0.036545429
0.36009037 0.14710361 0.037257858
0.36252496 0.14701194 0.037187681
0.36804655 0.14688537 0.037029479
0.3706404 0.1467064 0.036953785
0.37307498 0.14661473 0.036883608
0.37552509 0.14692898 0.036817677
0.37815049 0.14692394 0.03674309
0.38106203 0.1472083 0.036663711
0.38850608 0.14686581 0.036877204
0.39118874 0.14705914 0.037374962
0.39361405 0.14696783 0.037305068
0.39644361 0.1468613 0.037223507
0.3992731 0.14675477 0.03714196
0.40169841 0.14666346 0.037072051
0.4042083 0.14686345 0.037003104
0.41223872 0.14707647 0.036777593
0.41471097 0.1467603 0.037148423
0.41713184 0.14703493 0.03763869
0.42527172 0.14688982 0.037405942
0.4276877 0.14679885 0.037336305
0.43010366 0.14670791 0.037266672
0.4330461 0.14682761 0.037184518
0.35484967 0.14952852 0.036434088
0.36018279 0.1495391 0.037283294
0.36261737 0.14944744 0.037213128
0.36505201 0.14935575 0.037142951
0.36789241 0.14924882 0.037061088
0.37074816 0.1495478 0.03698346
0.37318286 0.14945614 0.036913291
0.37563288 0.14977039 0.036847364
0.37806752 0.14967874 0.036777187
0.38090789 0.14957178 0.036695324
0.39135885 0.14932367 0.037253313
0.39370614 0.14939398 0.037330404
0.39653566 0.14928745 0.037248854
0.39936513 0.14918092 0.0371673
0.40180579 0.14949395 0.037101623
0.40415949 0.14964832 0.037036587
0.42536345 0.14930663 0.037431188
0.42786607 0.14937375 0.037360914
0.35504046 0.15186761 0.036455628
0.35666975 0.15180628 0.036408663
0.36037278 0.15186928 0.037304755
0.36270982 0.15188292 0.037238568
0.36514443 0.15179126 0.037168398
0.36773831 0.1516123 0.037092697
0.38627535 0.15180863 0.036568724
0.38872537 0.15212288 0.036502797
0.39109039 0.15214472 0.036435906
0.39420244 0.15180489 0.037344102
0.40201992 0.15208903 0.03712545
0.39123702 0.15406078 0.036453824
0.39286011 0.15399967 0.036407053
0.67566216 -0.2236129 0.028331399
0.67729145 -0.22367422 0.028284341
0.67973542 -0.22376615 0.028213799
0.68177211 -0.22384277 0.028155014
0.67269224 -0.22125691 0.028443016
0.67490321 -0.22211537 0.028370256
0.67735332 -0.22204433 0.028301388
0.67979723 -0.22213626 0.028230846
0.6822412 -0.22222821 0.028160295
0.68442392 -0.22203831 0.02810041
0.66929942 -0.21929306 0.028562158
0.67203689 -0.21947022 0.02848226
0.67484224 -0.21941996 0.028403085
0.67742181 -0.21950458 0.027867006
0.70128328 -0.21919052 0.027653879
0.70366496 -0.21951944 0.028207663
0.70541149 -0.21949096 0.028533518
0.70053971 -0.21728554 0.027697012
0.70337957 -0.21713087 0.027464118
0.70600247 -0.21725377 0.028003808
0.70812041 -0.21681517 0.028487358
0.56940287 -0.21325107 0.028470993
0.65208191 -0.21380043 0.028114647
0.65422094 -0.21446605 0.02804614
0.70582068 -0.21451558 0.027141104
0.7082901 -0.21433185 0.028177693
0.71027577 -0.21409146 0.028457511
0.56773114 -0.21183744 0.028534843
0.64657658 -0.21140875 0.028298775
0.64846402 -0.21202588 0.028237998
0.65132618 -0.21213357 0.028155359
0.70875782 -0.21179163 0.027726809
0.71084893 -0.2118367 0.028467216
0.71250278 -0.21108593 0.028428853
0.56749922 -0.20905225 0.028573573
0.64634192 -0.20937137 0.028328959
0.64855713 -0.20957176 0.028263658
0.71092713 -0.20940697 0.028292928
0.71314842 -0.20936811 0.028430322
0.56797373 -0.2074192 0.028578907
0.63886803 -0.20593038 0.028581172
0.64107436 -0.20636448 0.028513441
0.64386928 -0.20670368 0.028430045
0.64628488 -0.20686479 0.028359508
0.64866567 -0.20670857 0.028293608
0.63891459 -0.20470332 0.028594002
0.64072609 -0.20444377 0.028545495
0.64361852 -0.20406106 0.028467672
0.64623523 -0.20404781 0.02839341
0.64101261 -0.20158675 0.028370226
0.64322835 -0.20135348 0.028081235
0.56270593 -0.19895601 0.027825901
0.64095855 -0.19852275 0.027606748
0.64340955 -0.19856462 0.027354665
0.55776823 -0.19637725 0.026995569
0.56258535 -0.19667292 0.027855672
0.63898158 -0.19591969 0.027692992
0.64094549 -0.19615805 0.027634408
0.55720055 -0.19374686 0.027167123
0.56163782 -0.19435875 0.027909309
0.63696569 -0.192719 0.027787238
0.63857627 -0.19360192 0.027731266
0.64103884 -0.19369456 0.027660169
0.55487812 -0.19115967 0.027137948
0.55765992 -0.19129679 0.027771903
0.55985272 -0.19150999 0.027992943
0.63661754 -0.19106126 0.027816281
0.63837403 -0.19105259 0.027766429
0.55488509 -0.1887919 0.027307997
0.5593605 -0.18888743 0.0280372
0.63823795 -0.18872999 0.027797095
0.55257648 -0.18608305 0.027261969
0.55733675 -0.1860889 0.028127031
0.63367844 -0.18546849 0.027964383
0.55018038 -0.18349786 0.027359929
0.55267215 -0.18341218 0.027665246
0.55513257 -0.18322974 0.028222697
0.6332038 -0.18353187 0.028000209
0.54711699 -0.18097076 0.027476195
0.54985976 -0.18099079 0.027397972
0.55242908 -0.1803298 0.028190097
0.55408359 -0.18061046 0.028282747
0.63338321 -0.18077262 0.028026951
0.54419851 -0.17819761 0.02671577
0.54704857 -0.17839003 0.027507914
0.54970711 -0.17808092 0.027991716
0.55203843 -0.17811692 0.028369665
0.63319516 -0.17785001 0.028066017
0.54186165 -0.17559272 0.026687222
0.54464096 -0.17587818 0.027176589
0.54709727 -0.17565803 0.027638098
0.54983014 -0.17537554 0.028464086
0.53934836 -0.17309815 0.026787467
0.54468286 -0.17300855 0.027637273
0.54761815 -0.17268929 0.028432924
0.54918879 -0.17317645 0.028507695
0.53705144 -0.170403 0.026883878
0.53995508 -0.17048772 0.027425621
0.54228675 -0.17042339 0.027735233
0.54401118 -0.17079067 0.027681947
0.54761308 -0.17104577 0.028577089
0.53436857 -0.16779774 0.026990218
0.5368011 -0.16813251 0.027167298
0.53935039 -0.16763519 0.027850898
0.54123145 -0.16735943 0.02780059
0.52901614 -0.16498765 0.027174838
0.53129983 -0.16528228 0.027106505
0.53422314 -0.16513374 0.027596785
0.53666437 -0.16522183 0.02795512
0.53901929 -0.16540493 0.027886041
0.63316679 -0.16554204 0.028208837
0.52103716 -0.16229497 0.0264323
0.52368635 -0.16253355 0.026520962
0.52661103 -0.16239281 0.027273163
0.52892858 -0.16272603 0.027346352
0.53402883 -0.16272214 0.028058905
0.51850605 -0.16007705 0.026529858
0.52147746 -0.15960509 0.027117809
0.52409786 -0.15989822 0.027373411
0.52656698 -0.16022399 0.027699625
0.53150535 -0.16075596 0.028153345
0.51126242 -0.15721105 0.026768897
0.51375806 -0.15766405 0.026692711
0.51599151 -0.15752937 0.026964253
0.52127612 -0.15728773 0.027483767
0.52395982 -0.15747651 0.027905509
0.52621925 -0.15764625 0.028339531
0.52813536 -0.15827279 0.028277814
0.50799835 -0.15493363 0.026887991
0.51080889 -0.15511554 0.026805973
0.51357251 -0.15456083 0.027448425
0.51584637 -0.15468344 0.027668204
0.51857775 -0.15488265 0.027921721
0.52127939 -0.15465836 0.028347721
0.52380735 -0.15547632 0.02843315
0.48480615 -0.15228814 0.027077749
0.49554729 -0.15195149 0.02727644
0.49805653 -0.15204591 0.027203999
0.50056577 -0.1521403 0.027131565
0.50307506 -0.1522347 0.027059125
0.50563556 -0.15226021 0.027097186
0.50839746 -0.15200901 0.027577378
0.5109995 -0.15196389 0.02772624
0.51326108 -0.15225573 0.027769729
0.51946884 -0.15295669 0.028585583
0.48977169 -0.14963944 0.027467346
0.49259073 -0.1497152 0.02752924
0.49546111 -0.14953795 0.027806982
0.49816367 -0.14958793 0.02747944
0.50066102 -0.14963017 0.027157817
0.50292677 -0.14983511 0.027091026
0.50589281 -0.14955366 0.028010424
0.50841236 -0.14991677 0.027934588
0.47309095 -0.14775506 0.0279634
0.47458693 -0.14760067 0.027589157
0.47685483 -0.14789666 0.027854741
0.48617673 -0.14761937 0.028593361
0.48789072 -0.14643167 0.028558329
0.49537474 -0.14713061 0.028337462
0.49790934 -0.14738816 0.028151251
0.4883548 -0.14519696 0.028559372
0.49070325 -0.14456977 0.028499838
0.49295378 -0.14495258 0.028431425
0.49545372 -0.14504664 0.028359255
0.49713615 -0.14469253 0.028315514
0.4905329 -0.14277452 0.028525382
0.67326236 -0.11956846 0.02859962
0.67471671 -0.11900878 0.028564729
0.54824275 -0.081129171 0.028596133
0.56321782 -0.080860868 0.028173417
0.52969575 -0.078299612 0.028155714
0.53136241 -0.078362316 0.028107593
0.53427899 -0.078472033 0.028023399
0.53636223 -0.078550413 0.027963251
0.5499661 -0.079530656 0.028565578
0.55234712 -0.079382613 0.028499587
0.55499458 -0.078472316 0.028434807
0.5575009 -0.078150772 0.028367251
0.56311798 -0.079110593 0.02819646
0.56566179 -0.079051852 0.0281248
0.56829345 -0.078556798 0.028055668
0.51979095 -0.07542263 0.028470546
0.5214417 -0.075902119 0.028418073
0.52394164 -0.075996175 0.028345903
0.52642578 -0.076507017 0.028269373
0.52892572 -0.076601066 0.028197207
0.5314256 -0.076695114 0.028125035
0.5342257 -0.07687635 0.028043324
0.53709525 -0.076824941 0.027962321
0.53965855 -0.076900505 0.027888563
0.54229021 -0.076269068 0.027821017
0.54479015 -0.076363117 0.027748846
0.54718006 -0.076214515 0.027682606
0.55009735 -0.076634407 0.02809504
0.55251795 -0.076774262 0.028358079
0.55507326 -0.0763961 0.028456526
0.5575639 -0.076489806 0.028384622
0.56005448 -0.076583497 0.028312726
0.56270802 -0.076766491 0.028235162
0.56556696 -0.076715283 0.028154461
0.56835651 -0.076895833 0.028073056
0.57035524 -0.076804683 0.028017277
0.51678818 -0.073918343 0.028573284
0.51893359 -0.074024357 0.028511059
0.52152079 -0.073818117 0.02843987
0.52402067 -0.073912174 0.028367702
0.52639103 -0.074116193 0.027964452
0.5291608 -0.074034199 0.027765369
0.53176939 -0.073957779 0.027646596
0.53412473 -0.074110135 0.027878013
0.53682041 -0.074469596 0.027997313
0.53974235 -0.074054129 0.027919022
0.54488498 -0.073862314 0.027775006
0.54738492 -0.073956355 0.027702834
0.5498848 -0.074050412 0.027630664
0.55238479 -0.07414446 0.027558492
0.55497837 -0.074126497 0.027818438
0.57095724 -0.074082814 0.028031558
0.57327569 -0.073846601 0.02796836
0.57542175 -0.073280483 0.027913868
0.51413053 -0.070536137 0.027687401
0.51630431 -0.071160212 0.027868502
0.51858258 -0.071462795 0.028004872
0.52120835 -0.071640313 0.027473394
0.52371764 -0.071734704 0.027400954
0.52622676 -0.07182911 0.027328514
0.52875191 -0.071505152 0.027260453
0.57355809 -0.071269803 0.02799006
0.57580703 -0.071473219 0.027923767
0.50877839 -0.06810037 0.027867675
0.51118064 -0.068563148 0.027794037
0.51377583 -0.068846971 0.027716968
0.51628506 -0.068941385 0.027644528
0.5187943 -0.069035783 0.027572088
0.52130347 -0.069130175 0.02749965
0.52381277 -0.069224574 0.02742721
0.57348973 -0.068689041 0.028021783
0.57591051 -0.068744473 0.02795231
0.50386572 -0.065122552 0.02804172
0.50569314 -0.065526463 0.027985107
0.50801605 -0.066116586 0.027912246
0.51082659 -0.066298492 0.02783023
0.51370686 -0.066246882 0.027748924
0.51628983 -0.066087246 0.027427206
0.57607478 -0.06629128 0.027975941
0.57792956 -0.065612547 0.027931035
0.50116223 -0.06278643 0.028145552
0.50320125 -0.063317001 0.028081454
0.50560206 -0.063512057 0.028010942
0.50811124 -0.063606463 0.027938502
0.51065791 -0.063710622 0.027564745
0.57591707 -0.063873492 0.028008325
0.57855648 -0.063695565 0.027935321
0.49874821 -0.060181897 0.028244257
0.50067872 -0.060813129 0.028182073
0.50318789 -0.060907528 0.028109632
0.50583655 -0.061039578 0.02766899
0.50851071 -0.061431985 0.027151864
0.57853884 -0.061349161 0.027962895
0.58075798 -0.06045169 0.027910152
0.49817875 -0.058019169 0.028285393
0.50072056 -0.058333047 0.028098335
0.50296795 -0.058579233 0.027475782
0.50549263 -0.058856189 0.027067309
0.58111876 -0.058247473 0.027925327
0.58349198 -0.057782304 0.027863204
0.49337304 -0.054672956 0.028460652
0.49514273 -0.055338036 0.02840266
0.4978247 -0.055754509 0.028321592
0.50036758 -0.055887453 0.02754743
0.50290477 -0.056151681 0.027172098
0.58370376 -0.055849701 0.027879486
0.58607703 -0.055384532 0.027817369
0.49095899 -0.052068442 0.028559357
0.49270862 -0.052867424 0.028500378
0.49510935 -0.053062484 0.028429862
0.49779141 -0.053299308 0.027850637
0.50048178 -0.053537473 0.027271161
0.58617842 -0.053372178 0.027837705
0.49102244 -0.050395012 0.028576851
0.49269533 -0.050457951 0.028528558
0.49537289 -0.050689932 0.027949514
0.49805874 -0.050923262 0.027370218
0.58848506 -0.050346479 0.027807027
0.49108592 -0.048721604 0.028594345
0.49295428 -0.048080567 0.028048394
0.49563566 -0.048309058 0.027469281
0.49815428 -0.048403807 0.027396573
0.58849794 -0.048015751 0.027833551
0.59080917 -0.047523055 0.02777352
0.59744287 -0.047393829 0.028586864
0.49072593 -0.044760268 0.02764985
0.49243042 -0.045637861 0.027702404
0.49519405 -0.04584584 0.027510257
0.59133279 -0.045408126 0.027783031
0.59351337 -0.044907991 0.027726794
0.59791917 -0.045754634 0.028592229
0.59897655 -0.045172997 0.028568879
0.49019453 -0.042938095 0.02768597
0.49246868 -0.043143794 0.027618935
0.49498722 -0.043238543 0.027546223
0.59121442 -0.042899147 0.027481861
0.59391785 -0.043010361 0.027737189
0.59571308 -0.042440284 0.027692726
0.59968317 -0.04292104 0.028574768
0.48803717 -0.040285818 0.027777916
0.49004567 -0.040529586 0.027717995
0.4925642 -0.040624335 0.027645286
0.5938338 -0.040452406 0.027657934
0.59592491 -0.040507685 0.027708992
0.60015947 -0.041281842 0.028580144
0.60062003 -0.040056333 0.028581187
0.48762259 -0.037915375 0.02781705
0.49014118 -0.038010132 0.027744345
0.49274766 -0.037802361 0.02767263
0.59379107 -0.037758585 0.027164733
0.59652388 -0.037868861 0.027722413
0.60124987 -0.038008634 0.028586904
0.48603907 -0.035332751 0.027891874
0.48771816 -0.035395917 0.027843406
0.49032462 -0.035188153 0.027771687
0.49269685 -0.034910403 0.027707443
0.59403646 -0.034934461 0.027026633
0.59647357 -0.035009034 0.027756834
0.59822088 -0.034772348 0.027709881
0.60158837 -0.036364246 0.028596252
0.48580521 -0.032632694 0.027929682
0.48790398 -0.032711651 0.02786909
0.49027377 -0.032296196 0.0278065
0.59665495 -0.032218412 0.027783874
0.59831536 -0.032280881 0.027735939
0.48539066 -0.030262247 0.027968824
0.48741224 -0.02982075 0.027916431
0.49024329 -0.029537942 0.027739137
0.59674942 -0.029726949 0.027809935
0.59840989 -0.029789412 0.027762005
0.48508239 -0.027307088 0.028011683
0.48719707 -0.026966136 0.027955482
0.48992422 -0.027177529 0.027693592
0.59684396 -0.027235484 0.027835995
0.5985043 -0.027297949 0.027788064
0.48519382 -0.024367714 0.028042426
0.48729265 -0.024446677 0.027981838
0.48981121 -0.024541426 0.027909126
0.59693843 -0.024744019 0.027862055
0.59859878 -0.024806485 0.02781412
0.48486963 -0.021832468 0.028080901
0.48738819 -0.021927217 0.028008189
0.48990679 -0.02202197 0.027935479
0.59687006 -0.022163259 0.027893776
0.59869331 -0.02231502 0.027840177
0.48496518 -0.019313008 0.028107252
0.48748371 -0.019407757 0.028034542
0.4900023 -0.019502509 0.02796183
0.59671229 -0.019745471 0.02792616
0.59878778 -0.019823555 0.027866235
0.48506063 -0.016793549 0.028133605
0.48757929 -0.016888298 0.028060893
0.49021751 -0.016917033 0.027885497
0.59648097 -0.017075416 0.027963543
0.59848291 -0.016901227 0.027908623
0.48515621 -0.014274086 0.028159954
0.48767486 -0.014368837 0.028087249
0.49048457 -0.014506944 0.027755639
0.59643072 -0.01421559 0.027997965
0.59859318 -0.013994516 0.027939031
0.48525175 -0.011754628 0.028186308
0.48777035 -0.01184938 0.0281136
0.49028894 -0.01194413 0.02804089
0.49238548 -0.011650849 0.026984172
0.5966121 -0.011424971 0.028025005
0.59868765 -0.011503053 0.027965089
0.4852384 -0.0093361987 0.028214596
0.48770118 -0.0092396224 0.028145676
0.49038452 -0.0094246725 0.02806724
0.49259567 -0.0087387031 0.02734529
0.59670663 -0.008933506 0.028051065
0.59856665 -0.0092114005 0.027994975
0.48544288 -0.0067157098 0.028239012
0.48728666 -0.0068691759 0.028184816
0.49029848 -0.0065749157 0.028102567
0.49297407 -0.0061693084 0.02792
0.5968011 -0.0064420407 0.028077126
0.59844577 -0.0069197509 0.028024852
0.48552251 -0.0046161599 0.028260961
0.48730779 -0.0040946128 0.028216228
0.48967993 -0.0038168668 0.028151978
0.49270627 -0.0036248919 0.02806814
0.59689564 -0.0039505744 0.028103186
0.48742044 -0.0013702157 0.028244458
0.4898634 -0.00099489151 0.028179321
0.49238199 -0.0010896424 0.028106609
0.49520299 -0.0012722259 0.028024288
0.59657496 -0.0014434932 0.028141225
0.48793775 0.0014324036 0.028262084
0.48995897 0.0015245671 0.028205672
0.49247757 0.0014298159 0.028132966
0.49499619 0.0013350648 0.028060254
0.59667575 0.00121407 0.028169027
0.48835957 0.0036872835 0.028276101
0.49005449 0.0040440261 0.028232029
0.49257311 0.0039492752 0.028159317
0.49509171 0.0038545239 0.028086606
0.59385824 0.0036487526 0.028277231
0.59657806 0.0036220355 0.028199585
0.5983665 0.004144486 0.028154755
0.49025103 0.0064545609 0.028254252
0.49266869 0.0064687347 0.028185669
0.49518722 0.0063739843 0.028112957
0.59404194 0.0063031912 0.028302634
0.59629291 0.0064680101 0.028240526
0.5981037 0.0059840539 0.02818346
0.66231608 0.0065359166 0.0283649
0.66690975 0.006767578 0.027903471
0.49066535 0.0090671526 0.028272614
0.4927642 0.0089881942 0.02821202
0.4952828 0.0088934433 0.028139314
0.4980588 0.0087746205 0.027725508
0.59162986 0.0090220477 0.02831164
0.59389687 0.0090531744 0.028338486
0.5957076 0.0085692182 0.02828142
0.66201347 0.0094363531 0.028406974
0.66452855 0.0093366038 0.028000819
0.66709399 0.0092277583 0.027259644
0.49118066 0.011570822 0.028286844
0.49285972 0.011507654 0.028238377
0.49537829 0.011412902 0.028165665
0.49798477 0.01162067 0.028093945
0.50042802 0.011828571 0.027844965
0.58909726 0.011718729 0.028005488
0.59159321 0.01188436 0.028436655
0.59332722 0.011569625 0.028383717
0.66194564 0.011997781 0.028438458
0.66466534 0.011807507 0.027691953
0.49295533 0.014027114 0.028264727
0.49556416 0.014097167 0.028191349
0.49793401 0.014512626 0.028128758
0.50054288 0.014582681 0.028055383
0.50306147 0.014487929 0.027982678
0.58661538 0.014307474 0.027605703
0.5892688 0.014631912 0.028423289
0.59153539 0.014429082 0.028467664
0.66153878 0.01432433 0.02847687
0.66418087 0.014307674 0.027956896
0.49361584 0.016665487 0.028276384
0.49551341 0.016989123 0.028226165
0.49811983 0.01719689 0.028154442
0.50063843 0.017102141 0.028081737
0.50315702 0.017007388 0.028009031
0.50567555 0.016912635 0.027936319
0.58578461 0.017156137 0.027662192
0.58895797 0.016931958 0.028569829
0.59062624 0.017077114 0.028524064
0.66147089 0.016885759 0.028508352
0.6639995 0.016795672 0.027990766
0.49588281 0.019173339 0.02824086
0.49831635 0.019607423 0.028176669
0.50073397 0.019621598 0.028108086
0.50325257 0.019526847 0.028035382
0.5057711 0.019432098 0.027962675
0.50828969 0.019337345 0.027889963
0.58339798 0.019687681 0.027759263
0.58535469 0.019572329 0.027702294
0.58947545 0.019615429 0.02858608
0.59027416 0.018753707 0.028553426
0.65991664 0.019420559 0.028581789
0.66156459 0.019358562 0.028534217
0.66414857 0.0192794 0.027570536
0.50109869 0.021850588 0.028123433
0.50334805 0.022046305 0.028061738
0.50586671 0.021951556 0.027989026
0.50838524 0.021856805 0.027916316
0.51090378 0.021762053 0.027843604
0.58099288 0.022282526 0.02785759
0.58358246 0.02235206 0.027784757
0.58521748 0.021455763 0.027727932
0.65997916 0.021069095 0.028599024
0.6616717 0.021834459 0.028448574
0.66434526 0.021925252 0.027484309
0.50371283 0.024275295 0.028077081
0.50596219 0.024471015 0.028015379
0.50848079 0.024376264 0.027942667
0.51101536 0.024701422 0.027874351
0.5135498 0.02502658 0.027806036
0.57858783 0.024877369 0.027955914
0.58117747 0.024946906 0.027883086
0.58310074 0.024318025 0.027821144
0.66223198 0.02452196 0.028574815
0.6642952 0.024774367 0.0275186
0.50632697 0.026700007 0.028030723
0.50866419 0.027198238 0.027970014
0.51112676 0.02764079 0.027905097
0.51364535 0.027546039 0.027832389
0.57597226 0.027722985 0.02806312
0.57877231 0.027541751 0.027981414
0.58063936 0.027262814 0.027925104
0.66268557 0.027158104 0.028592333
0.66447592 0.027554534 0.027545542
0.50866121 0.029135242 0.027992448
0.51133311 0.029915789 0.027925475
0.51374084 0.030065499 0.027858738
0.51625943 0.029970748 0.027786037
0.57055026 0.029762452 0.027490461
0.57303405 0.030261997 0.028175967
0.57569736 0.030078316 0.028098112
0.57823825 0.029961862 0.028024521
0.66457009 0.030036667 0.027571507
0.51422429 0.031729348 0.027864188
0.51646578 0.032245744 0.027806414
0.51887357 0.03239546 0.027739678
0.52139211 0.0323007 0.027666965
0.52391076 0.032205954 0.027594259
0.56284505 0.03236907 0.027489509
0.56535435 0.032274671 0.027417071
0.56801432 0.0324631 0.027616469
0.57051647 0.03269922 0.028175618
0.57312888 0.032762796 0.028202124
0.57550067 0.032435052 0.028130898
0.57726377 0.031772446 0.028073132
0.66466409 0.032518804 0.027597465
0.51935709 0.034059305 0.027745128
0.52167368 0.034182407 0.027680673
0.52410722 0.034616489 0.027616482
0.52646631 0.035305679 0.027557354
0.52907526 0.035375729 0.027483979
0.53159386 0.035280984 0.027411273
0.53411239 0.035186231 0.027338561
0.55538106 0.035170294 0.027622905
0.55792177 0.035067998 0.027660642
0.560431 0.034973599 0.027588202
0.56299591 0.034862295 0.027736316
0.56571329 0.035031382 0.028166296
0.56813419 0.035288099 0.028373282
0.57059568 0.035123948 0.028301397
0.57277542 0.034445666 0.028231591
0.66465098 0.034901403 0.02762533
0.52682406 0.03764553 0.028407896
0.52901596 0.037851255 0.028214553
0.53178209 0.037830979 0.028135657
0.5343672 0.037667658 0.027804593
0.5368042 0.037591822 0.027512103
0.53932011 0.037497178 0.027439475
0.54198551 0.037551839 0.027542168
0.5446707 0.037580542 0.02749473
0.54731971 0.038003817 0.027662495
0.5497613 0.037993446 0.027926438
0.55216199 0.03779839 0.027855923
0.55508947 0.037688259 0.027771411
0.55801696 0.037578121 0.027686898
0.56029332 0.036864057 0.027613938
0.56310707 0.037634835 0.028543303
0.56567711 0.037455585 0.028468158
0.56828707 0.037118886 0.02839005
0.52711713 0.039997458 0.028593451
0.5289163 0.040109318 0.028543571
0.53161633 0.040170971 0.028467508
0.53449661 0.040222578 0.028386205
0.53716999 0.040038209 0.02830806
0.53976923 0.040108006 0.028234955
0.54213262 0.040384725 0.028170945
0.54472947 0.04059172 0.028099494
0.54723877 0.040497318 0.028027054
0.549748 0.040402915 0.027954616
0.5522573 0.04030852 0.027882176
0.55476642 0.040214118 0.027809739
0.55704284 0.039500054 0.027736776
0.5622499 0.039293844 0.028586814
0.53221494 0.04190043 0.028470427
0.53456324 0.041979663 0.028404582
0.53724927 0.042129982 0.028329939
0.53959447 0.042125545 0.028263206
0.54228365 0.042359542 0.028189441
0.54479295 0.042265136 0.028117001
0.54730219 0.042170737 0.028044552
0.54981142 0.042076338 0.027972123
0.55232072 0.041981936 0.027899683
0.57852358 -0.24047752 0.030898916
0.58035916 -0.24124609 0.030837864
0.57751775 -0.23012185 0.031047016
0.57762593 -0.2272696 0.031076849
0.6876893 -0.22742595 0.029710945
0.57602906 -0.22479612 0.0308173
0.57770318 -0.22523224 0.031098157
0.64662188 -0.22421943 0.031151095
0.64859271 -0.22473225 0.031089135
0.6513173 -0.22493596 0.031009303
0.67215222 -0.22501458 0.029415509
0.67458695 -0.22510618 0.029345214
0.67710882 -0.22503848 0.029274296
0.67987728 -0.22489871 0.029197179
0.6826458 -0.22475898 0.029120076
0.68516767 -0.22469126 0.029049145
0.68787199 -0.22490259 0.029219924
0.69039798 -0.22477034 0.029438224
0.69284636 -0.22474922 0.029648686
0.64659715 -0.22226366 0.03079918
0.64861828 -0.22230189 0.030782958
0.65114307 -0.22256723 0.030348973
0.65379125 -0.22240749 0.029967671
0.67224467 -0.22257911 0.029440973
0.67445332 -0.22327195 0.029370181
0.67667735 -0.22355884 0.02930364
0.68320048 -0.22299129 0.029124707
0.68535769 -0.22236109 0.029070619
0.68769473 -0.22234736 0.029004335
0.69012934 -0.22243895 0.028934052
0.69293332 -0.22264777 0.029082783
0.69540757 -0.22229739 0.029535936
0.57352322 -0.22000895 0.029651523
0.57619321 -0.22002423 0.030772405
0.64433885 -0.21909034 0.030274719
0.64644217 -0.2198808 0.030205797
0.64878684 -0.21966417 0.030141635
0.65123862 -0.21955955 0.029989742
0.65374583 -0.21963264 0.029333988
0.6562342 -0.21961761 0.028929919
0.66692042 -0.21993117 0.028872557
0.66948122 -0.22044268 0.029544208
0.67190039 -0.2209402 0.029469669
0.68613321 -0.22066268 0.029068172
0.69030893 -0.21984419 0.028958872
0.69267178 -0.21968919 0.028893486
0.69553298 -0.21980578 0.028987331
0.69820487 -0.21977779 0.029042961
0.70054239 -0.21992169 0.028889328
0.57367468 -0.21742786 0.029968798
0.57555389 -0.21705218 0.030419931
0.64130998 -0.21680844 0.030387193
0.64340717 -0.2173554 0.030321229
0.6461404 -0.21691191 0.029932693
0.64894491 -0.21685909 0.029669253
0.65133965 -0.21712019 0.029279817
0.65388298 -0.21708086 0.029026031
0.65632695 -0.2171728 0.028955489
0.65893072 -0.21735239 0.028879374
0.66173607 -0.2173021 0.028800188
0.69786298 -0.21750359 0.028771089
0.57298625 -0.21443696 0.02971971
0.57500035 -0.21434124 0.030300194
0.63877153 -0.21435139 0.030487716
0.64085621 -0.2144879 0.030426854
0.64327377 -0.21443035 0.029929996
0.64582914 -0.21432959 0.029286802
0.64868045 -0.21443684 0.029204473
0.6515317 -0.21454409 0.029122174
0.65379417 -0.21511889 0.02905119
0.6563887 -0.21554291 0.028972536
0.57059294 -0.21149977 0.029457856
0.57306927 -0.21156293 0.030012
0.57477254 -0.21171118 0.030337036
0.63853419 -0.21168765 0.030371275
0.64100569 -0.21181779 0.029786421
0.64347792 -0.21179283 0.029382914
0.64581615 -0.21198279 0.029314246
0.6487422 -0.21280695 0.02922152
0.65077883 -0.21288358 0.029162735
0.71191847 -0.2120308 0.029435031
0.71374506 -0.21189703 0.02938463
0.57057983 -0.20913507 0.029485503
0.57330835 -0.20920375 0.030282523
0.57483459 -0.2100751 0.030354142
0.64112663 -0.20925607 0.029479047
0.64357066 -0.20934802 0.029408485
0.64519995 -0.20940931 0.029361457
0.7140637 -0.2095951 0.029402127
0.71626234 -0.20956214 0.029339995
0.56812561 -0.20646845 0.029157281
0.57062292 -0.20655984 0.029764108
0.57308501 -0.20684946 0.030441105
0.64097774 -0.20703535 0.029508902
0.64348185 -0.20738605 0.029433643
0.56562686 -0.20402914 0.028684769
0.56823462 -0.20411764 0.029276589
0.5708921 -0.2040976 0.030160036
0.57259846 -0.20425647 0.030484855
0.56572056 -0.20155632 0.028710634
0.56850398 -0.20155323 0.029632017
0.57105595 -0.20174082 0.030557742
0.63829345 -0.20164886 0.028646922
0.63987195 -0.20105286 0.028608918
0.56570745 -0.19918269 0.028738394
0.56808054 -0.19917311 0.029671511
0.57033908 -0.1990514 0.030609153
0.64021689 -0.19915433 0.028621009
0.56508422 -0.19657974 0.028786149
0.56774306 -0.19624709 0.029896773
0.56978256 -0.19644995 0.030654997
0.63813967 -0.19634549 0.028712487
0.56320661 -0.19386768 0.028870827
0.56519985 -0.19362324 0.029217169
0.56802022 -0.1933246 0.030365992
0.56971514 -0.19390784 0.030686244
0.63766682 -0.19441621 0.028748184
0.56119871 -0.19024271 0.02896975
0.56273627 -0.19123858 0.028914539
0.56551886 -0.19085345 0.02984035
0.56805187 -0.19097801 0.030767342
0.62543303 -0.19115423 0.030288069
0.56086493 -0.18816656 0.029003197
0.56303608 -0.18827103 0.029440496
0.56571901 -0.18841369 0.030363031
0.56746352 -0.18849824 0.030812681
0.63493383 -0.18874274 0.028891349
0.5589143 -0.18520412 0.029092833
0.56043971 -0.18577741 0.029042851
0.56324309 -0.18583389 0.029962974
0.56602716 -0.18588416 0.030883692
0.55816847 -0.18311246 0.029138181
0.5600279 -0.18319574 0.029284442
0.56242597 -0.18346225 0.030156493
0.5650903 -0.18359607 0.030936722
0.55553651 -0.17998682 0.029249081
0.55733138 -0.18070783 0.029189728
0.56014645 -0.18078339 0.030109299
0.5629096 -0.18094604 0.030904256
0.56444067 -0.18183081 0.03097555
0.55344343 -0.1771566 0.029341251
0.55505496 -0.17818023 0.029283619
0.55786347 -0.17810175 0.030062225
0.56048626 -0.17849052 0.03069778
0.56230819 -0.17867851 0.031072564
0.55268198 -0.17547706 0.029382285
0.55547851 -0.17566276 0.030176047
0.55730271 -0.17629068 0.030241996
0.5602861 -0.17621309 0.031158516
0.55080444 -0.17276499 0.029466962
0.55242169 -0.1732233 0.029665813
0.55457413 -0.1732756 0.030354366
0.54533494 -0.16996579 0.028654326
0.54689544 -0.17001298 0.028859526
0.54977572 -0.17051823 0.02952214
0.55393761 -0.17109303 0.030397654
0.54279172 -0.16713589 0.028759301
0.54434901 -0.16774552 0.0288509
0.54719543 -0.16784167 0.029626386
0.54000676 -0.16413115 0.02887316
0.54215038 -0.1649368 0.028802898
0.54492342 -0.16517706 0.029721741
0.53555191 -0.16147788 0.029030442
0.53730184 -0.16213556 0.02897309
0.53952879 -0.16269279 0.028903335
0.54223156 -0.16274452 0.029159376
0.53192413 -0.15885572 0.029163852
0.53427458 -0.15966915 0.029087625
0.53649503 -0.15988241 0.029188773
0.53936368 -0.15988219 0.029940916
0.52746928 -0.15620245 0.029321134
0.52937824 -0.15682666 0.029259652
0.53144616 -0.15741734 0.029194027
0.5342207 -0.15736817 0.029615939
0.5238415 -0.15358029 0.029454544
0.52659762 -0.15461613 0.029364221
0.52936035 -0.15470381 0.029784882
0.53200871 -0.15488867 0.030207673
0.53426212 -0.15419994 0.03115203
0.51635385 -0.15197319 0.028685503
0.51852834 -0.15207244 0.028822625
0.52125025 -0.15170732 0.029549837
0.52374285 -0.15190367 0.030143669
0.52622586 -0.15195894 0.030405905
0.52880657 -0.15229186 0.030328684
0.53070837 -0.1529137 0.030267427
0.53367496 -0.15265068 0.031186596
0.50910002 -0.14868547 0.02892971
0.51091385 -0.14908639 0.028873498
0.5135749 -0.1494417 0.028960476
0.51570976 -0.14971158 0.028980035
0.5186066 -0.14965484 0.029648686
0.52639717 -0.15055034 0.030417293
0.48202598 -0.14704582 0.028718004
0.48465174 -0.14696571 0.028644264
0.48622411 -0.14636898 0.028606445
0.50586158 -0.14689919 0.0296141
0.50831705 -0.1474085 0.028966701
0.51105261 -0.14673126 0.029647093
0.62552536 -0.14746714 0.029968604
0.48276925 -0.1446058 0.029725479
0.48505044 -0.14435005 0.029663566
0.48749369 -0.14404693 0.029597592
0.48974785 -0.14379905 0.029536352
0.49268502 -0.1430779 0.029461145
0.49801832 -0.14494188 0.029287994
0.49975616 -0.1443886 0.030245453
0.50580788 -0.1442733 0.030630512
0.5081808 -0.14450037 0.030338099
0.4898116 -0.141574 0.029742122
0.49257565 -0.14152239 0.029982463
0.48975945 -0.13897586 0.030306309
0.49187246 -0.13932779 0.030528024
0.62825966 -0.13981164 0.030646145
0.46989489 -0.13680245 0.031182081
0.47147259 -0.13669609 0.03113845
