# .PCD v0.7 - Point Cloud Data file format
VERSION 0.7
FIELDS x y z
SIZE 4 4 4
TYPE F F F
COUNT 1 1 1
WIDTH 1342
HEIGHT 1
VIEWPOINT 0 0 0 1 0 0 0
POINTS 1342
DATA ascii
0.50570339 -0.02717182 0.079901598
0.50814033 -0.027318247 0.079375848
0.51078236 -0.027182655 0.079302259
0.51356077 -0.027411405 0.078998275
0.51635176 -0.027367992 0.078941613
0.51858038 -0.027086647 0.078444906
0.52074361 -0.026664414 0.07802444
0.6772151 -0.02762864 0.080566205
0.67972666 -0.027298678 0.080498591
0.50160033 -0.02526986 0.080585971
0.50342977 -0.025135955 0.080535479
0.50584781 -0.025030356 0.080467917
0.50810593 -0.024771253 0.080406696
0.51074749 -0.024600334 0.080333523
0.5134089 -0.024816355 0.079947501
0.51623046 -0.024561523 0.07982491
0.51871181 -0.024582637 0.079535522
0.52111965 -0.02454732 0.078884736
0.52312493 -0.023912571 0.078988947
0.67772269 -0.02502205 0.080581859
0.67975074 -0.024922308 0.080525324
0.509112 -0.0231869 0.080396354
0.51103228 -0.02303388 0.080343507
0.51351053 -0.023014523 0.080273241
0.51623505 -0.022441162 0.080202363
0.51897663 -0.022102423 0.080128305
0.52124977 -0.02198188 0.079922117
0.52369773 -0.022060769 0.079327531
0.52581769 -0.021524115 0.078939922
0.53240442 -0.020866692 0.078760177
0.53442508 -0.021282284 0.078697897
0.53657585 -0.021250082 0.078637101
0.53850502 -0.02109636 0.078584
0.67824137 -0.022950448 0.080591016
0.67957681 -0.02255048 0.080557652
0.52184355 -0.020061241 0.080070317
0.52403051 -0.019609431 0.079941869
0.52656841 -0.01951945 0.079257652
0.52920556 -0.019541591 0.07904835
0.53190619 -0.019284695 0.079611175
0.53427076 -0.019603195 0.079631194
0.53678983 -0.019566149 0.079266116
0.53951818 -0.019313846 0.078853674
0.54175407 -0.01895519 0.078516312
0.6789881 -0.020667318 0.080596119
0.52486128 -0.01769644 0.08001177
0.52676129 -0.016936054 0.079966515
0.52928543 -0.016849104 0.079895727
0.53162324 -0.017564761 0.079820976
0.53430748 -0.018052062 0.079738997
0.53682458 -0.017857136 0.079669654
0.53954899 -0.017032716 0.079601683
0.54206103 -0.016781798 0.079121172
0.54389048 -0.016319441 0.078485958
0.61552477 -0.016229846 0.078450494
0.54048252 -0.015580812 0.079591885
0.54221308 -0.014256095 0.080129646
0.5448584 -0.0140847 0.079297103
0.54729384 -0.014147416 0.079414696
0.54945982 -0.014089861 0.078620076
0.55203164 -0.013457057 0.078287445
0.61529529 -0.014683339 0.078474872
0.61649251 -0.014359967 0.078444548
0.67286932 -0.013299537 0.079854712
0.67452502 -0.01336187 0.079806902
0.67749274 -0.013805333 0.079717375
0.54258454 -0.012362516 0.080569714
0.54470617 -0.011725344 0.080433354
0.54717547 -0.011731668 0.079779439
0.54992396 -0.011715115 0.079132564
0.55244386 -0.011671462 0.078563116
0.55479115 -0.011297458 0.078233875
0.55721831 -0.010936138 0.078169011
0.561068 -0.010854718 0.078060456
0.56231499 -0.010788489 0.078025758
0.61565226 -0.01287057 0.078485638
0.6166597 -0.012908497 0.078456551
0.67222095 -0.011450588 0.079894491
0.67458791 -0.011705561 0.079824232
0.67656636 -0.012001202 0.079764545
0.54546797 -0.010228351 0.080512337
0.54763758 -0.0097717755 0.080455884
0.54987139 -0.0092555508 0.080216415
0.5525465 -0.0089540044 0.079678357
0.55517173 -0.0090687564 0.078999132
0.55775237 -0.0092527233 0.078773543
0.5602051 -0.0092236046 0.078746982
0.56267405 -0.0089652902 0.078673251
0.56541753 -0.0084083807 0.078965455
0.56766659 -0.0084930519 0.078900509
0.6238519 -0.0094787776 0.078291573
0.66974455 -0.008253267 0.080001831
0.67203927 -0.0089557339 0.079928458
0.67454475 -0.0090974467 0.079855561
0.67630649 -0.010111584 0.079793751
0.55060709 -0.0077305613 0.080394998
0.55241483 -0.0068199765 0.080354095
0.5551843 -0.0064383042 0.080146328
0.55772519 -0.0062726457 0.080009267
0.56032783 -0.0064437655 0.079883248
0.56301743 -0.0065450203 0.07980559
0.56546277 -0.006769958 0.079411849
0.56792927 -0.0065250727 0.079344526
0.57077855 -0.0062039299 0.07892938
0.57327932 -0.0060006352 0.078769647
0.57553697 -0.0058603184 0.078707047
0.57815784 -0.0056435517 0.078635
0.58005226 -0.005579683 0.078581855
0.66496921 -0.0059251091 0.080164514
0.66682887 -0.0064374353 0.080105714
0.66957992 -0.006351437 0.080028459
0.67213982 -0.0063056392 0.079956181
0.67439425 -0.0064809816 0.079890035
0.55508733 -0.0048715626 0.080300562
0.55794144 -0.0043542529 0.080225356
0.56048584 -0.0044019828 0.080152437
0.56317228 -0.0045031207 0.080074854
0.56552297 -0.0045916159 0.080006979
0.56798989 -0.0045723491 0.079937041
0.57067609 -0.0042569744 0.079864271
0.57328486 -0.0038746037 0.079794489
0.57596433 -0.0037400029 0.079386346
0.5785352 -0.0037918165 0.079083353
0.58107895 -0.0038547732 0.078639254
0.58351368 -0.0033925239 0.078508653
0.65735143 -0.0027632834 0.080417678
0.65900719 -0.0028256169 0.08036986
0.66197306 -0.0033164013 0.080279842
0.66433656 -0.00395511 0.080205247
0.66691697 -0.0041186018 0.080129974
0.66947687 -0.0040728035 0.080057681
0.67224044 -0.0036555436 0.079983905
0.57384592 -0.0023818938 0.079795763
0.57605416 -0.001792212 0.079739749
0.57884908 -0.0014539842 0.079664163
0.58120638 -0.0012296444 0.079522744
0.58371425 -0.0012783089 0.079083167
0.58615577 -0.0011249025 0.078641579
0.58811194 -0.00092628662 0.078406326
0.59172755 -0.00061178301 0.078307122
0.59478945 -5.1125884e-05 0.078226507
0.59613889 -0.0001019286 0.07818754
0.6548028 -1.3455749e-05 0.080521896
0.65648955 -0.0010058155 0.080462471
0.65907001 -0.0011693074 0.080387197
0.6617192 -0.0012690402 0.080310695
0.66436839 -0.0013687734 0.0802342
0.66701746 -0.0014685059 0.080157697
0.66966665 -0.0015682392 0.080081195
0.58152276 0.00052496977 0.079610959
0.58369893 0.0014912889 0.080122985
0.58631378 0.0013706491 0.079734571
0.58876914 0.001284756 0.078813337
0.59077948 0.0011137314 0.078354001
0.59704679 0.00067500828 0.07817068
0.65405834 0.0013415122 0.080558702
0.6565851 0.0015117754 0.080488808
0.65917057 0.0014807888 0.080414928
0.6618197 0.0013810558 0.080338426
0.66446894 0.0012813224 0.080261931
0.66711801 0.0011815901 0.080185406
0.66976726 0.0010818571 0.080108918
0.58429766 0.0037619318 0.080569863
0.58655709 0.0037605849 0.080505587
0.58859509 0.0039654975 0.080086179
0.65440625 0.0035178675 0.080573939
0.65660942 0.003899355 0.080515675
0.65927118 0.0041308836 0.080442637
0.66192025 0.0040311511 0.08036615
0.66450077 0.003867659 0.080290869
0.6669749 0.0038187429 0.080219917
0.58818096 0.005976432 0.080484971
0.65490162 0.0060867504 0.080589488
0.65663373 0.0062869336 0.080542549
0.65936631 0.0066390089 0.080468878
0.66168976 0.006693711 0.080403425
0.66407657 0.0066702054 0.080335267
0.6567148 0.008692788 0.080567993
0.65885049 0.0090674562 0.080511577
0.66145915 0.0093562733 0.080440722
0.66410834 0.0092565417 0.08036422
0.65708965 0.01131214 0.080587558
0.65888548 0.01144358 0.080538012
0.66164887 0.011860839 0.080464229
0.66421896 0.011905944 0.080329105
0.65904969 0.014024928 0.080563121
0.66154593 0.014139473 0.080493443
0.6569286 0.017837018 0.079666972
0.65954512 0.016593812 0.080578677
0.6613794 0.015993977 0.080519579
0.6494137 0.019986367 0.079905525
0.65133578 0.019714033 0.079847716
0.65399736 0.01961383 0.079770848
0.65659499 0.019582694 0.079696618
0.66015542 0.018693941 0.080585562
0.63156468 0.022569204 0.080443002
0.6467917 0.022884738 0.080013551
0.64875549 0.021953773 0.07994695
0.65150088 0.022307498 0.079872951
0.65409845 0.022276364 0.079798706
0.6566909 0.022112109 0.079723075
0.63053983 0.024829734 0.080498233
0.63268381 0.024595194 0.080434553
0.63555562 0.025307495 0.080361083
0.63808906 0.025593022 0.080292329
0.64103591 0.025482088 0.080207236
0.64367855 0.025135007 0.080128059
0.64618939 0.024573874 0.080050178
0.64885098 0.024473673 0.07997331
0.6515252 0.024706285 0.079899944
0.65405327 0.02484918 0.079829685
0.65584409 0.024377052 0.079773299
0.62849647 0.027173053 0.080583394
0.63029557 0.027171981 0.080532216
0.63295716 0.027071781 0.080455363
0.63563144 0.027304396 0.080381982
0.6383056 0.027537014 0.080308609
0.64096725 0.027436811 0.080231749
0.6436289 0.027336609 0.080154881
0.64629054 0.027236411 0.080078021
0.64895207 0.027136205 0.080001175
0.65138239 0.027019076 0.079930693
0.65372014 0.027471794 0.079869427
0.62869519 0.028898694 0.080597654
0.6303966 0.029834522 0.080560073
0.63305819 0.029734317 0.080483213
0.63565582 0.029703183 0.080408968
0.63849634 0.030053334 0.080332212
0.64106822 0.030099347 0.080259591
0.64372987 0.029999146 0.080182731
0.64624536 0.029809222 0.080109
0.64853388 0.029913519 0.080045111
0.65104932 0.029723598 0.079971381
0.65364683 0.02969246 0.079897143
0.63095844 0.03234639 0.080573082
0.63315928 0.032396857 0.080511063
0.63582081 0.03229665 0.080434211
0.63839281 0.032342665 0.08036159
0.64110023 0.03269783 0.080288678
0.64349824 0.032674212 0.080220215
0.6458962 0.032650594 0.080151729
0.6484887 0.032486331 0.080076098
0.65115029 0.032386132 0.079999223
0.61790895 0.036065284 0.079986699
0.63145614 0.034927338 0.080588713
0.63326025 0.035059389 0.080538914
0.6359219 0.03495919 0.080462061
0.6385144 0.03479493 0.080386423
0.64079446 0.035175703 0.080325976
0.64326662 0.035349272 0.080257654
0.6459282 0.035249073 0.080180809
0.64858979 0.03514887 0.080103949
0.65125138 0.035048671 0.080027089
0.61683846 0.037846807 0.080037706
0.62269008 0.038564093 0.079879552
0.62436134 0.038501177 0.079831287
0.63342535 0.037652861 0.080564149
0.63578963 0.037553594 0.080495767
0.63808823 0.037610639 0.080431059
0.64068079 0.03744638 0.080355413
0.64345729 0.037865598 0.080281265
0.64602917 0.037911605 0.080208659
0.64869076 0.037811406 0.080131799
0.65135235 0.037711203 0.080054939
0.61473137 0.040537961 0.080128692
0.61734116 0.040506687 0.080054112
0.62018043 0.04047633 0.079972997
0.6227535 0.040235955 0.079897046
0.62496471 0.040286653 0.079834729
0.63365442 0.04017726 0.080586776
0.63545859 0.040309314 0.080536976
0.63812023 0.040209115 0.080460124
0.64078182 0.040108915 0.080383271
0.64335376 0.040154926 0.080310643
0.64619428 0.040505074 0.080233894
0.64879191 0.040473945 0.080159649
0.6514535 0.040373743 0.080082797
0.61220288 0.042709224 0.080225676
0.61490124 0.042978548 0.080152035
0.61750698 0.043112267 0.080079459
0.6201809 0.043011609 0.080002233
0.62285495 0.042910933 0.07992503
0.62519479 0.042822849 0.079857469
0.63562363 0.042902783 0.080562226
0.6382212 0.042871654 0.080487989
0.64088285 0.042771447 0.080411129
0.64354438 0.042671245 0.080334269
0.64621872 0.042903867 0.080260888
0.64889282 0.043136477 0.080187507
0.65155452 0.043036282 0.080110654
0.60956091 0.045420513 0.080332115
0.61223495 0.045319848 0.08025489
0.61484474 0.045288566 0.080180302
0.61769849 0.045640353 0.080103181
0.62028253 0.04568658 0.080030233
0.62295657 0.045585912 0.079953015
0.62539619 0.045416787 0.079881668
0.6275202 0.045882899 0.079826638
0.63049698 0.045482341 0.079737343
0.63271195 0.045386072 0.079673238
0.63612145 0.045483731 0.08057785
0.63832229 0.04553419 0.080515832
0.64098388 0.045433983 0.080438986
0.64364547 0.045333784 0.080362119
0.6462431 0.045302652 0.080287881
0.64892793 0.045523752 0.080214068
0.65113634 0.045813587 0.080154598
0.60690504 0.048312161 0.079690665
0.60965604 0.048105352 0.08029785
0.61233646 0.047994822 0.080282867
0.6150105 0.047894154 0.080205649
0.61759454 0.047940381 0.080132686
0.62037861 0.048218258 0.080056719
0.62262386 0.04835451 0.079994425
0.62506354 0.048185389 0.079923078
0.62773764 0.048084721 0.079845861
0.63041162 0.047984052 0.07976865
0.63308573 0.04788338 0.079691432
0.63571632 0.04814893 0.080048442
0.63842338 0.048196718 0.080543689
0.64108485 0.048096519 0.080466829
0.64374655 0.047996324 0.080389984
0.64626187 0.04780639 0.080316238
0.64852655 0.048069239 0.079793103
0.65112561 0.048131336 0.079681426
0.60181689 0.050636116 0.079612091
0.60426795 0.05046621 0.079540417
0.60696715 0.050701004 0.07946635
0.60967219 0.050925761 0.079454526
0.61240005 0.050743211 0.079875074
0.61511213 0.050569128 0.080233634
0.61763924 0.050378319 0.080159552
0.61985797 0.050669502 0.080099814
0.62255538 0.050891645 0.080025651
0.6251651 0.050860364 0.07995107
0.62783909 0.050759699 0.079873845
0.63051307 0.050659027 0.079796635
0.63318723 0.050558358 0.079719409
0.6357969 0.050527073 0.079644822
0.63851982 0.050568234 0.080318198
0.64103109 0.050808031 0.080249541
0.6434381 0.050817303 0.080046505
0.64589733 0.05070857 0.079609759
0.64858836 0.05064825 0.079282403
0.60168344 0.053254768 0.079646088
0.60436994 0.053153638 0.07956852
0.60705638 0.053052489 0.079490945
0.60983711 0.053387728 0.079415724
0.61245483 0.053522073 0.079342835
0.61501771 0.053376954 0.079554103
0.61736232 0.053163212 0.080199562
0.61989313 0.053067934 0.080126494
0.62249881 0.053201661 0.080053926
0.62526655 0.053535342 0.079979055
0.62794065 0.053434674 0.079901837
0.6306147 0.053334005 0.079824626
0.63328874 0.053233337 0.079747394
0.6358934 0.053068306 0.07967142
0.63820261 0.05312562 0.079606399
0.64073604 0.053390846 0.079537399
0.64334178 0.053524565 0.079464823
0.64601582 0.0534239 0.079387605
0.64868981 0.053323228 0.079310395
0.60178542 0.055942189 0.079674207
0.60447186 0.055841055 0.079596639
0.60715836 0.055739902 0.079519056
0.60978019 0.055708487 0.079444125
0.61254406 0.055873562 0.079367414
0.61480713 0.056202404 0.079306848
0.61726177 0.056021001 0.079297461
0.61996305 0.055862069 0.079531461
0.62266099 0.055678196 0.079890303
0.62543643 0.055975929 0.080002382
0.6280421 0.056109656 0.079929806
0.63071615 0.056008987 0.079852596
0.63324338 0.055818178 0.07977853
0.63554269 0.055922952 0.079714321
0.63806987 0.055732146 0.079640247
0.64067954 0.055700865 0.079565659
0.64353329 0.056052655 0.079488561
0.64611733 0.056098882 0.079415604
0.60454303 0.058579579 0.079376101
0.60726035 0.05842733 0.079547174
0.60994685 0.058326192 0.079469599
0.61229748 0.058237702 0.079401724
0.61474234 0.05858558 0.079336204
0.61736012 0.058719922 0.079263285
0.62004662 0.058618788 0.079185702
0.62273514 0.058505423 0.079170465
0.62537986 0.058285948 0.080030657
0.62823373 0.058637738 0.079953551
0.63058335 0.058615509 0.079886451
0.63289261 0.058672819 0.079821445
0.63549733 0.058507789 0.079745457
0.63817143 0.058407124 0.079668239
0.64084542 0.058306448 0.079591013
0.64342934 0.058352683 0.079518043
0.64628315 0.058704473 0.079440944
0.61206365 0.06093777 0.079439528
0.61468548 0.060906339 0.079364605
0.61753082 0.061171856 0.079286732
0.6201486 0.061306212 0.079213828
0.62283504 0.061205074 0.079136245
0.62553692 0.060958251 0.079744384
0.62782729 0.060916614 0.079900451
0.63034028 0.061252665 0.079852343
0.63292474 0.061283443 0.079850651
0.63559872 0.061182767 0.079773434
0.63827282 0.061082099 0.079696223
0.64094687 0.06098143 0.079619005
0.64362091 0.060880765 0.079541788
0.64622664 0.061014488 0.079469219
0.61747396 0.063492626 0.079315141
0.62034112 0.063846044 0.079237662
0.62293702 0.063892484 0.079164356
0.62538815 0.063722581 0.079092696
0.6277082 0.063780166 0.07902737
0.63023388 0.063665323 0.079382971
0.6330263 0.063958421 0.079878636
0.63570035 0.063857749 0.079801425
0.63837433 0.063757077 0.0797242
0.64104837 0.063656405 0.07964699
0.64372247 0.06355574 0.079569772
0.62505394 0.066504054 0.0791343
0.62774038 0.06640292 0.07905671
0.6304267 0.066287309 0.079041511
0.63312006 0.066418856 0.079404123
0.63586611 0.066463336 0.079826787
0.63847584 0.066432059 0.079752192
0.64114994 0.066331394 0.079674967
0.51663202 -0.068411656 0.080661006
0.51825815 -0.068523847 0.080613457
0.54282558 -0.068092644 0.08092016
0.54467034 -0.067994662 0.080868818
0.54702282 -0.067748375 0.08080475
0.54969692 -0.067849047 0.080727533
0.51075274 -0.065437891 0.080862544
0.51436418 -0.065977529 0.080753602
0.51610017 -0.066312023 0.080700368
0.51839906 -0.065994874 0.08063864
0.53272599 -0.065201052 0.081240788
0.53439724 -0.065263972 0.081192523
0.53726673 -0.065505937 0.081108116
0.53988498 -0.066196077 0.081025682
0.54223812 -0.066563703 0.080954514
0.54467994 -0.066138133 0.08088997
0.5470863 -0.066076517 0.080822244
0.54976028 -0.066177189 0.080745019
0.55237007 -0.066208467 0.080670431
0.55446529 -0.065684617 0.080616891
0.50896078 -0.063426733 0.080936722
0.51115233 -0.06377089 0.080870427
0.51350302 -0.063859396 0.080802545
0.51585358 -0.063947871 0.08073467
0.51863426 -0.063612647 0.080659442
0.52038658 -0.063243881 0.080613852
0.52945197 -0.063269593 0.081356198
0.53178668 -0.063491441 0.081287228
0.53446072 -0.063592106 0.08121001
0.53713483 -0.063692778 0.081132799
0.53966194 -0.06388358 0.081058718
0.54196125 -0.063778803 0.080994532
0.54442406 -0.063900217 0.08092308
0.54727781 -0.063548438 0.080845967
0.54986179 -0.0635022 0.080773003
0.55253589 -0.063602872 0.080695793
0.55493766 -0.06352587 0.080628373
0.50673997 -0.060408916 0.08103472
0.50849807 -0.061046995 0.08097735
0.51081812 -0.060989417 0.080912024
0.51326913 -0.061159328 0.080840349
0.51595563 -0.061260466 0.080762781
0.51857746 -0.061291888 0.080687851
0.52092475 -0.061027028 0.080624133
0.52686167 -0.06096207 0.081456497
0.52909869 -0.061237637 0.081389688
0.5319525 -0.060885847 0.081312582
0.53449285 -0.060981479 0.081239223
0.53680205 -0.060924176 0.081174217
0.53924179 -0.061093293 0.08110287
0.54191577 -0.061193962 0.081025645
0.54458988 -0.061294634 0.080948435
0.54717386 -0.061248399 0.080875471
0.55002767 -0.06089662 0.080798358
0.5526374 -0.060927894 0.08072377
0.5553115 -0.061028562 0.080646552
0.55700809 -0.060422737 0.080605291
0.50656992 -0.05868683 0.081059434
0.50814569 -0.058179062 0.081020467
0.51068461 -0.058370769 0.080946036
0.51337111 -0.058471903 0.08086846
0.51605761 -0.058573045 0.0807909
0.51874411 -0.058674179 0.080713317
0.52123588 -0.058766402 0.080718331
0.5241676 -0.058181848 0.081565216
0.52661628 -0.058608882 0.081490636
0.52929032 -0.058709551 0.081413411
0.53180355 -0.058636736 0.081342772
0.53422761 -0.058199964 0.081278868
0.53666931 -0.058317646 0.081208073
0.53934336 -0.058418319 0.081130847
0.54203707 -0.058586702 0.081052288
0.54469132 -0.058619652 0.080976419
0.54736543 -0.05872032 0.080899194
0.54997289 -0.058562592 0.081076965
0.55255789 -0.058419812 0.081209742
0.5552783 -0.058356393 0.081595428
0.55746192 -0.058292881 0.081242256
0.56077009 -0.057771329 0.081529364
0.56309539 -0.057954092 0.081461109
0.56575698 -0.058054294 0.081384249
0.56821644 -0.058213543 0.081312455
0.57050782 -0.05817255 0.081247762
0.57307637 -0.05832985 0.081172891
0.57560998 -0.058291912 0.081101261
0.57842481 -0.057864614 0.081026122
0.58109909 -0.057631999 0.080952749
0.58354312 -0.057612911 0.080883458
0.58610225 -0.057487056 0.080812126
0.58976197 -0.057624832 0.080706447
0.59188992 -0.057990629 0.080641694
0.59342164 -0.057762608 0.080600768
0.50638282 -0.056526784 0.081089683
0.50816882 -0.055817697 0.081047066
0.51078665 -0.055683341 0.080974162
0.51347315 -0.055784483 0.080896586
0.51615959 -0.055885624 0.080819003
0.51869005 -0.056005277 0.080899581
0.52143908 -0.055668201 0.081671834
0.52404374 -0.055833232 0.081595846
0.52671772 -0.0559339 0.08151862
0.5292449 -0.056124717 0.081444547
0.53154427 -0.056019928 0.081380352
0.53400302 -0.055976354 0.08131092
0.53666538 -0.055860061 0.081403285
0.53935063 -0.055695426 0.082062483
0.54187477 -0.055924587 0.082088083
0.544617 -0.055734813 0.082012288
0.54718888 -0.055688798 0.081939667
0.54985052 -0.055788998 0.081862807
0.55251205 -0.055889204 0.081785947
0.55517364 -0.055989396 0.081709072
0.55783534 -0.056089602 0.081632234
0.56040734 -0.056043588 0.081559598
0.56317836 -0.055767007 0.081483997
0.56541324 -0.055631392 0.081421979
0.56784159 -0.055799723 0.081350975
0.57050323 -0.055899926 0.081274115
0.57316476 -0.056000121 0.081197247
0.57582647 -0.05610032 0.081120402
0.57839835 -0.056054313 0.081047788
0.58123887 -0.055704158 0.080971032
0.5838365 -0.055735298 0.08089678
0.58649802 -0.0558355 0.080819927
0.58915979 -0.055935696 0.080743067
0.59158808 -0.05610403 0.080672063
0.59342074 -0.055836882 0.080623008
0.50868034 -0.053585608 0.081058279
0.51097912 -0.053143512 0.080998003
0.51357508 -0.053097069 0.08092469
0.51626164 -0.0531982 0.080847122
0.51878291 -0.053230807 0.081229798
0.52147114 -0.053057581 0.081701048
0.52414525 -0.053158253 0.081623822
0.52658492 -0.053327374 0.081552476
0.52889419 -0.053270068 0.081487462
0.53149879 -0.053435095 0.081411473
0.53405797 -0.053603385 0.08140821
0.53680426 -0.053118628 0.082264692
0.53927988 -0.053391289 0.082191132
0.54194146 -0.053491492 0.082114272
0.5445134 -0.053445481 0.082041658
0.54735392 -0.053095326 0.081964888
0.54995155 -0.053126462 0.081890658
0.55261308 -0.053226665 0.081813797
0.55527478 -0.053326864 0.081736937
0.55793637 -0.053427067 0.081660084
0.56045175 -0.053616993 0.081586361
0.56266016 -0.053327158 0.081526883
0.56528109 -0.053036984 0.081455693
0.56794256 -0.053137183 0.081378818
0.57060426 -0.05323739 0.081301965
0.57326585 -0.053337585 0.081225112
0.57592744 -0.053437792 0.081148267
0.57858902 -0.053537995 0.081071399
0.58126324 -0.053305376 0.080998018
0.58393753 -0.053072758 0.080924645
0.58642226 -0.053444054 0.080849685
0.58886361 -0.053394515 0.081181005
0.59132093 -0.053417381 0.080710664
0.59389979 -0.053294882 0.080905527
0.59676498 -0.052564815 0.081566133
0.59919757 -0.052545816 0.081497163
0.60108244 -0.052395612 0.081445292
0.50891197 -0.051912293 0.081070997
0.51071995 -0.05153181 0.081023969
0.51384544 -0.051290639 0.080937847
0.51648003 -0.050986134 0.080866441
0.51911932 -0.050648209 0.081378885
0.52156001 -0.050716978 0.08172553
0.52381259 -0.050389651 0.08166524
0.52625227 -0.050558779 0.081593893
0.52892631 -0.050659444 0.081516683
0.5316003 -0.050760116 0.081439465
0.53423929 -0.05064328 0.082032733
0.53671926 -0.050628558 0.082295835
0.53938091 -0.050728753 0.082218982
0.54204255 -0.05082896 0.082142122
0.54470414 -0.050929159 0.082065262
0.54737836 -0.050696541 0.081991896
0.55005252 -0.050463926 0.081918523
0.55271417 -0.050564129 0.081841648
0.55530673 -0.050728388 0.081766032
0.55775321 -0.050708618 0.081839599
0.56023437 -0.050653573 0.082026921
0.56285417 -0.050786845 0.08205092
0.56557304 -0.050502907 0.082143605
0.56812948 -0.050705418 0.081735067
0.57063615 -0.05063891 0.081331044
0.5732612 -0.051064968 0.081251472
0.57582515 -0.050610133 0.081684031
0.57843322 -0.050632995 0.081776336
0.58101535 -0.050703943 0.081722923
0.58363432 -0.050409611 0.081782572
0.58631855 -0.050702427 0.081884749
0.58886772 -0.050940566 0.081809491
0.59152949 -0.050709043 0.08173646
0.59419119 -0.050477508 0.08166343
0.59684032 -0.050577242 0.081586927
0.59948957 -0.050676975 0.08151044
0.60213876 -0.050776705 0.08143393
0.60452497 -0.050655436 0.081367463
0.606475 -0.05011062 0.081318282
0.52132344 -0.049280375 0.08149872
0.52384728 -0.048660051 0.081684209
0.52646971 -0.048356958 0.081613123
0.52901512 -0.048318848 0.081541166
0.53179187 -0.048232038 0.081463203
0.53411609 -0.04812355 0.081565075
0.53682035 -0.047966026 0.0823237
0.53948194 -0.048066221 0.082246847
0.54214364 -0.048166424 0.082169987
0.54480517 -0.048266627 0.082093112
0.54740274 -0.048297759 0.082018882
0.55024332 -0.047947612 0.081942134
0.55258203 -0.047969725 0.081875354
0.55495203 -0.048020188 0.082224227
0.5578832 -0.048013344 0.082724556
0.56046462 -0.047880869 0.082652651
0.56311375 -0.047980595 0.082576156
0.56576294 -0.048080333 0.082499653
0.56826663 -0.048269365 0.082426265
0.57050413 -0.047866773 0.082367279
0.57304811 -0.0483546 0.082289279
0.57581168 -0.047937337 0.082215495
0.57837164 -0.047891535 0.08214321
0.58102083 -0.047991268 0.082066707
0.58366996 -0.048091002 0.081990212
0.58631915 -0.048190735 0.081913725
0.58896828 -0.048290472 0.081837222
0.59155375 -0.048321459 0.081763335
0.59435552 -0.047896158 0.081688538
0.59694088 -0.047927149 0.081614658
0.59952134 -0.048090637 0.081539378
0.60190815 -0.048114143 0.08147122
0.6042949 -0.04813765 0.081403062
0.6068753 -0.048301145 0.081327781
0.60899353 -0.047828 0.081272997
0.61587912 -0.046981428 0.081086919
0.61776751 -0.047467194 0.081027605
0.62015885 -0.047806025 0.080955677
0.62268049 -0.04752183 0.080887236
0.62448889 -0.047305569 0.080838293
0.53450328 -0.046197698 0.081909776
0.5369972 -0.04570023 0.082344815
0.53964704 -0.04547276 0.082272075
0.54224461 -0.045503885 0.082197838
0.54490614 -0.045604087 0.082120977
0.5474987 -0.045768347 0.082045339
0.54973668 -0.045619294 0.08198341
0.55244219 -0.045269649 0.08252617
0.55531037 -0.045630064 0.082825229
0.55782717 -0.045724817 0.082752563
0.56062889 -0.045299519 0.082677774
0.56306875 -0.045419808 0.082606986
0.56534672 -0.045316 0.082543395
0.56785041 -0.045505036 0.082470015
0.57049954 -0.045604773 0.082393505
0.57314873 -0.045704506 0.08231701
0.57570869 -0.045658704 0.082244731
0.5784722 -0.045241445 0.082170941
0.58112133 -0.045341175 0.082094431
0.58377057 -0.045440905 0.082017943
0.5864197 -0.045540638 0.081941441
0.58906889 -0.045640375 0.081864946
0.59171808 -0.045740105 0.08178845
0.59429944 -0.045607626 0.081716552
0.59671032 -0.045264579 0.081651933
0.59909719 -0.04528809 0.081583783
0.60167754 -0.045451578 0.081508502
0.60432673 -0.045551311 0.081432007
0.60697597 -0.045651048 0.081355505
0.60956132 -0.045682028 0.08128161
0.6121527 -0.044684865 0.08121942
0.61513364 -0.045116059 0.081129655
0.6175977 -0.045387451 0.081056431
0.62024683 -0.045487184 0.080979928
0.62289602 -0.045586914 0.080903441
0.62548149 -0.045617905 0.080829538
0.62775838 -0.045040153 0.080771454
0.63023156 -0.044536136 0.080706924
0.63388669 -0.044342007 0.080605209
0.54064423 -0.043777175 0.082263276
0.54246116 -0.043559898 0.082214117
0.54498202 -0.043607187 0.082141876
0.54726988 -0.043178231 0.082081743
0.54975921 -0.043048725 0.082262561
0.55256993 -0.042987153 0.082533486
0.55534226 -0.043043733 0.082854174
0.55792272 -0.043207221 0.082778901
0.56013912 -0.042952891 0.082718782
0.56265259 -0.042655468 0.082650736
0.56530178 -0.042755205 0.082574233
0.56795096 -0.042854931 0.082497731
0.57060003 -0.042954668 0.082421228
0.57324928 -0.043054402 0.082344726
0.57589847 -0.043154132 0.082268231
0.57866204 -0.042736877 0.08219444
0.581222 -0.042691082 0.082122162
0.58387113 -0.042790812 0.082045674
0.58652031 -0.042890541 0.081969172
0.58910072 -0.043054033 0.081893891
0.59157485 -0.043102946 0.081822947
0.59395105 -0.043075506 0.08175569
0.596569 -0.042747553 0.081685014
0.59912896 -0.042701751 0.081612736
0.60177809 -0.042801488 0.081536233
0.60442734 -0.042901222 0.081459731
0.60707647 -0.043000955 0.081383236
0.60972559 -0.043100681 0.081306726
0.61228561 -0.043054886 0.081234448
0.61504906 -0.042637624 0.081160665
0.61769825 -0.042737361 0.081084162
0.62034738 -0.042837091 0.081007667
0.62285101 -0.043026131 0.080934271
0.62512892 -0.042922322 0.080870681
0.62763262 -0.043111358 0.080797277
0.63019258 -0.043065559 0.080725007
0.63295615 -0.042648304 0.080651224
0.634637 -0.042048112 0.080610342
0.56805152 -0.040204845 0.082525454
0.57070076 -0.040304575 0.082448944
0.57334989 -0.040404312 0.082372457
0.57599902 -0.040504042 0.082295954
0.57855898 -0.040458243 0.082223669
0.58132249 -0.040040985 0.082149886
0.58390296 -0.040204477 0.08207462
0.58628976 -0.040227983 0.082006454
0.58867645 -0.040251493 0.081938289
0.5912568 -0.040414982 0.081863016
0.59390604 -0.040514715 0.081786513
0.596466 -0.04046892 0.081714235
0.59929043 -0.040253397 0.082136631
0.60191208 -0.040396277 0.081893668
0.60452789 -0.040251125 0.081487447
0.60717708 -0.040350854 0.081410952
0.60982621 -0.040450588 0.081334449
0.61247534 -0.040550318 0.081257954
0.61523896 -0.040133059 0.081184164
0.61765337 -0.04017657 0.081115
0.61993128 -0.040072761 0.081051402
0.62252921 -0.040370759 0.081116997
0.6250841 -0.040361527 0.080901526
0.62773323 -0.040461261 0.080825016
0.63038236 -0.040560994 0.080748521
0.63314587 -0.040143732 0.080674723
0.63515812 -0.03996674 0.080619536
0.6409936 -0.039047606 0.081464648
0.64330071 -0.039134465 0.081398025
0.65211374 -0.03999453 0.081137434
0.65415722 -0.040071458 0.081078425
0.65615475 -0.03961838 0.081026845
0.66969305 -0.039467696 0.08064352
0.57345045 -0.037754212 0.082400188
0.57609957 -0.037853945 0.082323678
0.57874876 -0.037953679 0.082247183
0.58126223 -0.037656255 0.082179122
0.58347863 -0.037401929 0.08211901
0.58605915 -0.037565421 0.082043737
0.58874494 -0.03761946 0.082154319
0.59136921 -0.037749641 0.081953123
0.59402776 -0.037834033 0.081939057
0.59673464 -0.037840031 0.082237177
0.59945261 -0.037813894 0.082660399
0.60208929 -0.037913162 0.082584262
0.60478139 -0.037661672 0.082202762
0.6072312 -0.037715774 0.081639916
0.60965967 -0.037629478 0.082014918
0.61227506 -0.037805557 0.081628822
0.61473465 -0.037815634 0.081225254
0.61730087 -0.037480984 0.081156127
0.61979973 -0.037579369 0.081369765
0.62253612 -0.03778043 0.082004242
0.62520641 -0.037510205 0.081743822
0.62783492 -0.037795909 0.080915406
0.63048291 -0.037910901 0.080776244
0.63303757 -0.037759524 0.081134096
0.63577175 -0.037551235 0.081547067
0.63839436 -0.037959225 0.081551135
0.64114493 -0.037543919 0.081477702
0.64369285 -0.037498336 0.081405759
0.64632952 -0.0375976 0.081329621
0.64896637 -0.037696868 0.081253476
0.65145826 -0.037885014 0.081180431
0.65381563 -0.037841301 0.08118058
0.65614796 -0.037789445 0.081048138
0.65889788 -0.036915138 0.080980025
0.66154081 -0.036849543 0.080905609
0.66417754 -0.036948811 0.080829464
0.66681433 -0.037048075 0.080753326
0.66965407 -0.037595224 0.080666237
0.67136186 -0.037738122 0.08061602
0.58077246 -0.035309639 0.08222013
0.58357424 -0.034884334 0.082145356
0.58612204 -0.035087548 0.082301423
0.58909458 -0.03492403 0.082988374
0.5916425 -0.034878444 0.082916424
0.59427923 -0.034977708 0.082840279
0.59691596 -0.035076972 0.082764149
0.59955269 -0.03517624 0.082688004
0.602121 -0.035338961 0.082613073
0.60439801 -0.035282455 0.082548961
0.6069175 -0.034934651 0.08248131
0.60946542 -0.034889068 0.082409374
0.61210215 -0.034988333 0.082333244
0.61471087 -0.035177976 0.081881665
0.61726481 -0.035120506 0.08149223
0.62009269 -0.035233088 0.081745841
0.62258565 -0.035316966 0.082031265
0.6253742 -0.034893669 0.081956834
0.62794626 -0.034954678 0.081757918
0.63058376 -0.035053972 0.081681758
0.63322103 -0.035123039 0.081731007
0.6358577 -0.035222307 0.081654876
0.63849437 -0.035321571 0.081578732
0.64111835 -0.035178225 0.081505761
0.64372456 -0.034924142 0.08143457
0.6461001 -0.034947548 0.081366725
0.64847565 -0.034970939 0.081298895
0.65104401 -0.03513366 0.081223957
0.65359855 -0.035054959 0.081902564
0.65630293 -0.035302788 0.081197485
0.6589666 -0.035101749 0.080998994
0.66161585 -0.03487131 0.080926307
0.66425264 -0.03497057 0.080850154
0.66688931 -0.035069838 0.080774017
0.66952616 -0.035169099 0.080697872
0.67193753 -0.03518369 0.080629125
0.5864982 -0.03265338 0.083021715
0.588992 -0.032656092 0.083017454
0.59174258 -0.032240793 0.082944021
0.59431088 -0.032403518 0.08286909
0.59677351 -0.032452203 0.082798481
0.59913838 -0.03242489 0.082731545
0.60163033 -0.032613035 0.082658492
0.604267 -0.032712303 0.08258234
0.60689092 -0.032568954 0.082509376
0.6095655 -0.032251418 0.082436979
0.61220223 -0.032350685 0.082360819
0.61483896 -0.032449946 0.082284689
0.61747575 -0.032549214 0.082208551
0.62011248 -0.032648478 0.082132407
0.62274921 -0.032747738 0.082056269
0.62542373 -0.032430202 0.081983849
0.62804765 -0.032286856 0.081910893
0.63068444 -0.03238612 0.081834748
0.63332117 -0.032485388 0.081758603
0.63595784 -0.032584649 0.081682466
0.6385262 -0.032747377 0.081607543
0.64080322 -0.032690868 0.081543431
0.64332265 -0.032343064 0.081475779
0.64587057 -0.032297477 0.081403837
0.64850736 -0.032396745 0.081327699
0.65114409 -0.032496009 0.081251554
0.65368515 -0.032397483 0.082055829
0.65639567 -0.032651898 0.08128798
0.65899092 -0.032725379 0.081025727
0.66171604 -0.032233655 0.080953889
0.66435277 -0.03233292 0.080877759
0.66698939 -0.032432184 0.080801606
0.66962624 -0.032531451 0.080725469
0.67226297 -0.032630716 0.080649331
0.67393589 -0.032033339 0.080608644
0.59388864 -0.02961413 0.082913287
0.596457 -0.029776856 0.082838364
0.59909374 -0.02987612 0.082762234
0.60173047 -0.029975384 0.082686082
0.60436714 -0.030074649 0.082609944
0.60694045 -0.030105488 0.082536392
0.60972905 -0.029682187 0.082461968
0.61230236 -0.029713031 0.082388431
0.61493897 -0.029812293 0.082312278
0.61757582 -0.029911559 0.082236141
0.6202125 -0.030010823 0.082160003
0.62284929 -0.030110087 0.082083859
0.62539721 -0.030064505 0.082011923
0.62814772 -0.029649202 0.081938468
0.63071609 -0.029811928 0.081863552
0.63317871 -0.029860616 0.081792943
0.63554353 -0.029833296 0.081726007
0.63803548 -0.030021446 0.081652947
0.64067221 -0.030120712 0.081576809
0.64329612 -0.029977363 0.081503838
0.6459707 -0.029659826 0.081431434
0.64860737 -0.02975909 0.081355296
0.65124422 -0.029858356 0.081279159
0.6538533 -0.02990335 0.081454545
0.65651762 -0.030056883 0.081126869
0.6591543 -0.03015615 0.081050731
0.66190487 -0.029740853 0.080977283
0.66445279 -0.029695267 0.080905348
0.66708958 -0.029794533 0.080829203
0.66972625 -0.029893793 0.080753066
0.67236298 -0.029993061 0.080676936
0.6744324 -0.029823331 0.080620028
0.59919381 -0.027238466 0.082789816
0.60183054 -0.027337732 0.082713678
0.60446727 -0.027436992 0.082637548
0.60710394 -0.027536258 0.082561404
0.60975319 -0.027305817 0.082488708
0.61240238 -0.027075374 0.082416013
0.61503917 -0.027174642 0.082339875
0.6176759 -0.027273905 0.082263738
0.62031263 -0.027373169 0.082187593
0.62294936 -0.027472433 0.082111448
0.62551767 -0.027635161 0.082036525
0.62796414 -0.02712786 0.0819728
0.63029385 -0.027022537 0.081907757
0.63286209 -0.027185261 0.081832826
0.63549882 -0.027284529 0.081756689
0.63813561 -0.027383791 0.081680544
0.64077234 -0.027483057 0.081604406
0.64334565 -0.027513897 0.081530862
0.64613426 -0.027090592 0.08145643
0.64870751 -0.027121436 0.081382886
0.65134424 -0.027220702 0.081306748
0.65398097 -0.02731997 0.081230611
0.65661776 -0.027419232 0.081154458
0.65925449 -0.027518496 0.081078321
0.66187835 -0.02737515 0.08100535
0.66455293 -0.02705761 0.080932945
0.66712129 -0.027220339 0.080858015
0.66949683 -0.027243732 0.080790184
0.67187238 -0.027267128 0.080722347
0.67444068 -0.027429853 0.080647424
0.67611367 -0.026832484 0.080606721
0.50113779 -0.024846366 0.080937497
0.50311178 -0.023724049 0.08156129
0.50561726 -0.023530027 0.081492268
0.60193056 -0.024700074 0.082741261
0.60456741 -0.024799339 0.08266513
0.60720402 -0.024898607 0.082588978
0.60977733 -0.024929447 0.082515441
0.61250252 -0.024437722 0.08244361
0.61513931 -0.024536988 0.082367465
0.61770761 -0.024699712 0.082292542
0.6201703 -0.024748394 0.08222194
0.62253511 -0.024721082 0.082154989
0.62502706 -0.024909228 0.082081944
0.62757492 -0.024863644 0.082009993
0.6303255 -0.024448346 0.081936553
0.63296223 -0.02454761 0.081860416
0.63559896 -0.024646873 0.081784278
0.63823569 -0.024746139 0.081708148
0.64087242 -0.024845405 0.081631988
0.64350909 -0.02494467 0.081555866
0.64618373 -0.02462713 0.081483454
0.64880759 -0.024483785 0.081410483
0.65144432 -0.024583049 0.081334338
0.65408111 -0.024682313 0.081258193
0.65671784 -0.024781581 0.081182048
0.65935457 -0.024880843 0.081105918
0.66184998 -0.024974789 0.081033863
0.66426641 -0.024460433 0.080971062
0.66663063 -0.02449441 0.080903426
0.6692673 -0.024593674 0.080827281
0.67190409 -0.024692934 0.080751166
0.67454076 -0.024792202 0.080675006
0.6764766 -0.024723576 0.080620751
0.50162578 -0.022370536 0.081619173
0.50331759 -0.022097819 0.081574209
0.50578141 -0.021931799 0.081506044
0.5081014 -0.021874227 0.081440724
0.51064169 -0.021639569 0.081371181
0.51343018 -0.021469304 0.081293829
0.51592278 -0.021361299 0.081224181
0.51780844 -0.021297723 0.081171289
0.60466743 -0.022161689 0.082692727
0.60730416 -0.022260953 0.082616597
0.60994089 -0.022360217 0.082540445
0.61253721 -0.022072755 0.08246991
0.61482269 -0.021861635 0.082407348
0.61728531 -0.021910319 0.082336754
0.61985362 -0.022073044 0.082261816
0.62249041 -0.022172311 0.082185686
0.62512708 -0.022271574 0.082109533
0.62776387 -0.022370841 0.082033388
0.63048899 -0.021879112 0.081961557
0.6330623 -0.021909954 0.081888013
0.63569903 -0.02200922 0.081811875
0.6383357 -0.022108486 0.081735745
0.6409725 -0.022207752 0.0816596
0.64360929 -0.022307014 0.081583455
0.64615715 -0.02226143 0.081511512
0.64890778 -0.02184613 0.081438079
0.65154451 -0.021945393 0.081361927
0.65411276 -0.022108117 0.081287004
0.65657532 -0.022156807 0.081216402
0.65894026 -0.022129489 0.081149451
0.66143215 -0.022317637 0.081076406
0.66405612 -0.022174291 0.081003428
0.6667307 -0.021856755 0.080931023
0.66936743 -0.021956019 0.080854878
0.6720041 -0.022055283 0.08077874
0.67464089 -0.022154549 0.080702603
0.67713988 -0.022154292 0.080631539
0.50172782 -0.019683115 0.081647292
0.50317144 -0.019815095 0.081604704
0.50543445 -0.019486252 0.081544138
0.50813371 -0.019251462 0.081470087
0.51082015 -0.0193526 0.081392489
0.51350665 -0.01945374 0.081314929
0.51619315 -0.019554878 0.081237346
0.51881498 -0.019586299 0.081162408
0.52116227 -0.019321438 0.081098698
0.52294755 -0.018799933 0.081053942
0.60507387 -0.020148754 0.082704403
0.60725945 -0.019712184 0.082647271
0.60984045 -0.019466922 0.082076453
0.61213821 -0.019648701 0.082355313
0.61468029 -0.019236865 0.082441695
0.61731696 -0.019336127 0.082365558
0.61995375 -0.019435393 0.082289405
0.62259048 -0.019534659 0.082213268
0.62522709 -0.019633923 0.082137123
0.62786394 -0.019733187 0.082060993
0.63051319 -0.019502744 0.08198829
0.63316232 -0.019272303 0.08191561
0.63579911 -0.019371567 0.081839465
0.63843584 -0.019470833 0.081763327
0.64107263 -0.019570097 0.081687182
0.64370936 -0.019669361 0.081611045
0.64634603 -0.019768627 0.081534915
0.64892495 -0.019383151 0.081466004
0.65122789 -0.019270044 0.08140181
0.65369052 -0.019318732 0.081331208
0.65625882 -0.019481456 0.081256285
0.65889555 -0.01958072 0.081180133
0.66153234 -0.019679984 0.081103995
0.66410559 -0.019710829 0.081030458
0.66689414 -0.019287523 0.080956027
0.66946757 -0.019318365 0.080882475
0.67210418 -0.019417629 0.080806345
0.67474097 -0.019516895 0.080730192
0.67737764 -0.019616159 0.080654062
0.67901313 -0.020007905 0.080603018
0.50290698 -0.016968964 0.081645079
0.50552368 -0.01713476 0.081568725
0.50807542 -0.016945001 0.081598401
0.51088911 -0.016769376 0.082420819
0.51357251 -0.016739931 0.08234483
0.51615649 -0.016693702 0.082271881
0.51886988 -0.016918205 0.081914209
0.52139837 -0.016880861 0.081620395
0.52365172 -0.017066201 0.081120625
0.52561563 -0.016433392 0.081005372
0.53234881 -0.016238332 0.08081612
0.53446704 -0.016542351 0.080752365
0.53705007 -0.016415322 0.080680348
0.53919393 -0.016047487 0.080623627
0.60808599 -0.017746713 0.082146212
0.60952598 -0.017526597 0.08175049
0.61217302 -0.017097158 0.082037464
0.61476785 -0.016928919 0.082465835
0.61746395 -0.016806027 0.082123779
0.62005389 -0.01679774 0.082317002
0.62269056 -0.016897002 0.082240872
0.62532729 -0.016996268 0.082164727
0.62796402 -0.017095532 0.082088575
0.63053739 -0.017126376 0.082015045
0.63326252 -0.016634651 0.081943206
0.63589919 -0.016733915 0.081867054
0.63853598 -0.016833179 0.081790917
0.64117265 -0.016932445 0.081714779
0.64366454 -0.017120594 0.081641734
0.64602953 -0.017093277 0.08157479
0.64840692 -0.016976209 0.081508517
0.65108544 -0.016645271 0.081436157
0.65372217 -0.016744537 0.081360012
0.6563589 -0.016843805 0.081283875
0.65899563 -0.016943067 0.081207737
0.66163242 -0.017042333 0.081131592
0.66426921 -0.017141597 0.081055447
0.66694367 -0.016824059 0.080983043
0.66956758 -0.016680712 0.080910072
0.67220432 -0.01677998 0.080833942
0.67484111 -0.01687924 0.080757797
0.67733288 -0.01706739 0.080684744
0.50562567 -0.014447339 0.081596851
0.50835425 -0.014443935 0.082186274
0.51088452 -0.01448613 0.082447305
0.51346856 -0.014439901 0.082374342
0.51632231 -0.014088115 0.082297228
0.51893204 -0.014119394 0.082222655
0.52145916 -0.014310205 0.082148559
0.52379191 -0.014301464 0.081948914
0.52630258 -0.014389651 0.081342898
0.52925205 -0.014224064 0.080927439
0.53186989 -0.01408972 0.080854528
0.53453612 -0.014243626 0.081062779
0.53696781 -0.014099903 0.081281118
0.53936404 -0.014334591 0.080888674
0.54097497 -0.013423276 0.080603257
0.61791337 -0.014348932 0.081405677
0.62012452 -0.014237332 0.081781775
0.62279063 -0.01425935 0.082268462
0.62542737 -0.014358614 0.082192324
0.6280641 -0.014457881 0.082116187
0.63070083 -0.014557145 0.082040042
0.6334514 -0.014141843 0.081966594
0.63585454 -0.014185144 0.08189775
0.63821948 -0.014157828 0.081830807
0.64068204 -0.014206513 0.081760198
0.64325035 -0.014369239 0.081685267
0.64588708 -0.014468503 0.08160913
0.64852387 -0.014567767 0.081533
0.65124899 -0.014076041 0.081461161
0.6538223 -0.014106883 0.081387609
0.65645903 -0.014206147 0.081311464
0.65909576 -0.014305412 0.081235319
0.66173255 -0.014404677 0.081159182
0.66436923 -0.01450394 0.081083052
0.66691715 -0.014458357 0.081011109
0.66966766 -0.014043057 0.080937669
0.67220491 -0.01428008 0.080862761
0.67500854 -0.014472707 0.080780797
0.67724323 -0.014460327 0.080717392
0.50572765 -0.011759917 0.081624962
0.50845593 -0.011764809 0.082214288
0.51098603 -0.01181115 0.082475282
0.51366007 -0.011911822 0.082398057
0.5161249 -0.011913288 0.08232794
0.51886308 -0.012155534 0.082247265
0.52152497 -0.011591158 0.082594924
0.52378017 -0.01165857 0.082541928
0.52635241 -0.011688024 0.082144961
0.52909827 -0.011832728 0.081489079
0.5316757 -0.011604697 0.081288919
0.53442198 -0.011688889 0.081810132
0.53708178 -0.011824641 0.081914812
0.53983712 -0.011614359 0.082057141
0.54195112 -0.011275475 0.081800841
0.54383188 -0.010703745 0.081553854
0.61817992 -0.012567596 0.081418648
0.62018502 -0.012295144 0.081489831
0.62305874 -0.0118153 0.082212083
0.62552398 -0.011736251 0.082094781
0.62816417 -0.011820227 0.082143776
0.63065612 -0.012008375 0.082070731
0.63286126 -0.011819269 0.082010187
0.63544023 -0.01143379 0.081941284
0.63807696 -0.011533055 0.081865147
0.64071375 -0.01163232 0.081789002
0.64335042 -0.011731583 0.081712857
0.64598715 -0.011830849 0.081636727
0.64862388 -0.011930114 0.081560589
0.65127313 -0.011699671 0.081487887
0.65392238 -0.01146923 0.081415206
0.65655911 -0.011568494 0.081339061
0.65919584 -0.011667756 0.081262916
0.66183257 -0.011767024 0.081186779
0.6644693 -0.011866288 0.081110649
0.66710597 -0.011965552 0.081034504
0.66976243 -0.011546706 0.080963783
0.6713782 -0.012456567 0.08090733
0.67689639 -0.012003952 0.080755599
0.50582969 -0.0090724984 0.081653081
0.50851035 -0.0090947039 0.082160197
0.51108754 -0.0091361729 0.082503274
0.5136922 -0.0093011986 0.082427278
0.51527208 -0.0091262814 0.082384363
0.52195781 -0.0094111366 0.08319138
0.52373624 -0.0089543415 0.08314608
0.52641004 -0.0090086889 0.082902648
0.52905965 -0.0090474039 0.082159862
0.53183675 -0.0092476159 0.081911825
0.53436393 -0.0094384272 0.081837758
0.53710079 -0.0092194108 0.082762897
0.53927088 -0.0097296266 0.08269529
0.54237759 -0.0093265865 0.082511529
0.54444951 -0.0090439348 0.081626907
0.54689729 -0.0084986957 0.081603289
0.54894722 -0.0082175201 0.081437066
0.62359488 -0.010057443 0.081793845
0.62517375 -0.0095964726 0.08125402
0.62834501 -0.0099560237 0.082160145
0.63550282 -0.0097852563 0.081958532
0.6383779 -0.0092429407 0.081792064
0.64081371 -0.0089946659 0.081816606
0.64345056 -0.00909393 0.081740461
0.64608729 -0.009193196 0.081664309
0.64872402 -0.0092924591 0.081588179
0.65129727 -0.0093233008 0.081514634
0.65402251 -0.0088315764 0.081442803
0.65665919 -0.0089308415 0.081366658
0.65929598 -0.0090301046 0.081290513
0.66193265 -0.0091293706 0.081214368
0.66456938 -0.0092286356 0.081138238
0.66706133 -0.0094167832 0.081065185
0.66900468 -0.0092855515 0.081011429
0.67545843 -0.009308395 0.080827609
0.50593162 -0.0063850763 0.081681199
0.50842333 -0.0064480375 0.081859715
0.51104212 -0.006551336 0.082534388
0.51334149 -0.0064465539 0.082470216
0.51520014 -0.006612197 0.082415424
0.52377993 -0.0067578419 0.083170183
0.52640927 -0.0062457914 0.083101302
0.52923936 -0.0063944226 0.082668938
0.53193831 -0.0065726358 0.081939802
0.53450131 -0.0066102999 0.082366712
0.53646392 -0.0068742898 0.082808077
0.54463995 -0.007050815 0.081573039
0.547418 -0.0066423216 0.08221335
0.54987496 -0.0064073326 0.081725813
0.55193716 -0.005874516 0.081379063
0.6392684 -0.0073902784 0.0808786
0.6409139 -0.0063570128 0.081844203
0.64355063 -0.0064562783 0.081768066
0.64618737 -0.0065555423 0.081691921
0.6488241 -0.0066548064 0.081615768
0.65146083 -0.0067540715 0.081539646
0.65421134 -0.0063387705 0.081466198
0.65675932 -0.006293186 0.081394248
0.65932763 -0.0064559113 0.081319332
0.66170317 -0.0064793094 0.081251495
0.66389632 -0.0066719316 0.081186891
0.66660953 -0.0076545496 0.081098378
0.50804842 -0.0037735102 0.081651129
0.51090962 -0.0037805976 0.082486771
0.51329607 -0.0038617179 0.082501322
0.51557851 -0.0038563227 0.082436465
0.52437371 -0.0042805029 0.083181888
0.52657825 -0.0038165583 0.083124526
0.52917182 -0.0036834572 0.0830523
0.5316897 -0.0038125128 0.082666561
0.53446668 -0.0038897211 0.082836792
0.53613329 -0.0046121199 0.082843579
0.55001694 -0.0045793043 0.082449086
0.5525651 -0.0040846001 0.081911512
0.55484807 -0.0036079851 0.081422463
0.5572753 -0.0033966831 0.081255823
0.5603348 -0.0030016142 0.081173368
0.5628674 -0.0030491226 0.081100792
0.56554145 -0.0031497926 0.081023559
0.56807405 -0.0031973012 0.08095099
0.5702337 -0.0029915906 0.080891937
0.64365077 -0.0038186247 0.081795648
0.64628744 -0.0039178887 0.081719503
0.64892423 -0.0040171533 0.081643358
0.6515609 -0.0041164183 0.081567228
0.65402305 -0.0041329158 0.081497006
0.65627712 -0.0036082189 0.081438951
0.65882438 -0.0040596896 0.081361294
0.66119927 -0.0042958399 0.08129102
0.66308409 -0.0048804088 0.08123067
0.50815046 -0.00108609 0.08167924
0.51077849 -0.0011360624 0.082104154
0.51339757 -0.0011867392 0.082529314
0.51573741 -0.0012748247 0.082461745
0.52489728 -0.0021893615 0.083191119
0.5266248 -0.0023210556 0.08314047
0.52933693 -0.0010899882 0.083077535
0.53193456 -0.0011211208 0.083003297
0.53412533 -0.0013369133 0.082938492
0.55333406 -0.0020378435 0.082384065
0.55528843 -0.0014901978 0.082191877
0.55769801 -0.0014824769 0.081641063
0.56017584 -0.0013765707 0.081196658
0.56293088 -0.0013772598 0.081118278
0.56547332 -0.0011326154 0.081382275
0.56820685 -0.0011386557 0.081304453
0.57089627 -0.0014092531 0.080891356
0.57313347 -0.0011525401 0.080830686
0.57545203 -0.00073247589 0.080769591
0.57768881 -0.00059345271 0.080707572
0.58005399 -1.2792647e-05 0.080647007
0.64365321 -0.0013300729 0.081038214
0.64616513 -0.0012819829 0.081341445
0.6487003 -0.0013723328 0.081608795
0.65107024 -0.0013904887 0.081612632
0.65363854 -0.001553213 0.081537709
0.65527397 -0.0019449601 0.081486672
0.50834292 0.0014537493 0.081703082
0.51060313 0.0015128348 0.081639476
0.51349914 0.0014882404 0.082557291
0.51594466 0.0014734461 0.082487568
0.52990741 0.0010660477 0.083086193
0.53180236 0.0014732846 0.083037004
0.53329724 0.001427258 0.082993947
0.55631006 0.00029426347 0.082326338
0.55802739 0.00067400385 0.082281865
0.56023896 0.0011718697 0.082224719
0.56266934 0.0010547386 0.082154244
0.56534344 0.0012873547 0.082080878
0.56812084 0.0014588202 0.082137249
0.57062739 0.0014069661 0.08174438
0.57312363 0.0012660604 0.081046455
0.57574672 0.0011539122 0.08078298
0.57842082 0.0010532426 0.080705754
0.58108634 0.0015312694 0.080635458
0.64325047 0.0014166621 0.080866978
0.64589953 0.0013169289 0.080790482
0.64854324 0.0012216091 0.080776714
0.65114993 0.001152139 0.08113949
0.65314871 0.00063281169 0.081376784
0.50823843 0.0037644766 0.081732713
0.5107646 0.0039961701 0.081663534
0.51366496 0.0040938272 0.082582638
0.51627469 0.0040625497 0.082508057
0.56322634 0.0036710699 0.083169065
0.56573713 0.0036713255 0.083097659
0.56822699 0.0037434567 0.083027668
0.57071018 0.0041440725 0.082608558
0.57337856 0.0040501258 0.082001917
0.57603967 0.0038674837 0.081556305
0.57863128 0.0037021374 0.081464015
0.58104676 0.0037292205 0.081448026
0.58292621 0.0041596647 0.08128044
0.58648044 0.0051577105 0.08152435
0.64335102 0.0040667574 0.080894701
0.64600021 0.0039670249 0.080818206
