# .PCD v0.7 - Point Cloud Data file format
VERSION 0.7
FIELDS x y z
SIZE 4 4 4
TYPE F F F
COUNT 1 1 1
WIDTH 1379
HEIGHT 1
VIEWPOINT 0 0 0 1 0 0 0
POINTS 1379
DATA ascii
0.39977759 -0.19879952 0.031170391
0.40164638 -0.1986628 0.031118903
0.4041678 -0.19906904 0.03034226
0.40690118 -0.19883679 0.02942148
0.40902182 -0.1985551 0.028909758
0.55273658 -0.19871776 0.029078774
0.55518281 -0.19870469 0.029659759
0.5579372 -0.19890064 0.030294988
0.56039673 -0.19891594 0.030609759
0.40197253 -0.19630778 0.0311369
0.4042339 -0.19638997 0.030707918
0.40692312 -0.19630872 0.029709971
0.40948105 -0.19605605 0.029036807
0.55280942 -0.19621849 0.029240314
0.55544847 -0.19603708 0.029883176
0.55740434 -0.19619447 0.030635279
0.55965692 -0.19614829 0.030662805
0.40264636 -0.19414341 0.031142816
0.40431622 -0.19379207 0.031099455
0.40660077 -0.19362514 0.030236125
0.40944144 -0.19365181 0.029339384
0.41206157 -0.19359136 0.028880889
0.55014837 -0.19375831 0.028959563
0.55229074 -0.19366767 0.029536424
0.55496573 -0.193569 0.030210197
0.55754304 -0.19350374 0.030753434
0.55915689 -0.19397262 0.030702189
0.40490049 -0.19149412 0.031109458
0.40686256 -0.19128403 0.030833844
0.4095504 -0.19118406 0.029730408
0.4121193 -0.19115359 0.029157577
0.41470829 -0.19086871 0.028837238
0.5471195 -0.19125941 0.029074494
0.54997611 -0.19117315 0.029161112
0.55231905 -0.19111274 0.029928986
0.55490452 -0.19105402 0.030471914
0.55714095 -0.19120352 0.030791473
0.4053005 -0.18968636 0.031119019
0.40707266 -0.18862328 0.031081002
0.40932456 -0.1883627 0.030383391
0.4122338 -0.18872973 0.029624889
0.41483021 -0.18825598 0.02895497
0.41693324 -0.18800098 0.028807238
0.5445894 -0.18861485 0.029176947
0.54705209 -0.18870765 0.029105935
0.54973638 -0.18868352 0.029530222
0.55273449 -0.18853267 0.030254891
0.55504996 -0.18872209 0.030768398
0.55688316 -0.18939838 0.030819684
0.40764225 -0.18618417 0.031093052
0.40965733 -0.18581851 0.030940015
0.41187447 -0.18601236 0.030174473
0.41468027 -0.18604821 0.029530477
0.41737458 -0.18553644 0.028823236
0.54222041 -0.18605858 0.029273804
0.5446831 -0.18615137 0.029202793
0.54742855 -0.18605128 0.0294833
0.54992259 -0.18621354 0.029953692
0.5525198 -0.18603705 0.030696649
0.55481392 -0.18660004 0.03091082
0.41017732 -0.18340738 0.031053204
0.41220152 -0.18346657 0.030722173
0.41453764 -0.18330412 0.030013464
0.4171443 -0.1832338 0.029241214
0.41941959 -0.18296072 0.028794974
0.5406723 -0.18353324 0.029346993
0.54231411 -0.18359512 0.02929965
0.54475969 -0.18332554 0.029316695
0.54724461 -0.18358456 0.030006301
0.54995626 -0.1835382 0.03058398
0.55210626 -0.18360764 0.031022359
0.5538103 -0.18438596 0.030964941
0.41249472 -0.1809617 0.031015698
0.41473281 -0.18086419 0.030842105
0.41719693 -0.18055561 0.029786337
0.41972196 -0.18074206 0.029042937
0.42174518 -0.1803214 0.02875947
0.54035544 -0.18105431 0.029384673
0.54230046 -0.18062155 0.029334454
0.54455703 -0.18092339 0.030156178
0.54728234 -0.18096568 0.030522937
0.54986095 -0.18097274 0.031116605
0.55147469 -0.18144161 0.03106536
0.41315287 -0.17921101 0.031017274
0.41502577 -0.17836095 0.030973921
0.41731206 -0.17797947 0.030663289
0.41971537 -0.17804712 0.029843902
0.42231953 -0.17820929 0.028998487
0.42492732 -0.17710213 0.028706372
0.53356153 -0.17717545 0.028622001
0.53735441 -0.17710365 0.029515624
0.53931212 -0.17802471 0.029449366
0.54208511 -0.17785719 0.029801326
0.54454458 -0.17823362 0.030298818
0.54830897 -0.17887399 0.031184956
0.54951549 -0.1793275 0.031145453
0.41771066 -0.17551614 0.030930599
0.41996762 -0.17546512 0.030594243
0.42229387 -0.17559564 0.029708095
0.42493522 -0.17546265 0.028891863
0.42759404 -0.174897 0.028656164
0.52982068 -0.17428297 0.028761715
0.53154427 -0.1750702 0.02870366
0.53404528 -0.17516467 0.028731596
0.5368799 -0.17516702 0.029551506
0.53960985 -0.17512538 0.029903233
0.5420782 -0.1754037 0.030310666
0.54388309 -0.17604895 0.030342877
0.42028621 -0.17312753 0.03088511
0.42254579 -0.17307405 0.030548699
0.42490309 -0.17300434 0.029845893
0.42759663 -0.17275561 0.029181099
0.42970899 -0.17237507 0.028792029
0.52703071 -0.17170149 0.028870806
0.52916622 -0.17250423 0.028800882
0.53153127 -0.17269655 0.028731499
0.53428137 -0.17265679 0.029082641
0.53702575 -0.17260441 0.029677073
0.53943855 -0.17268261 0.030431103
0.54180598 -0.17323996 0.030434379
0.42312703 -0.1710251 0.030828765
0.42505854 -0.17058918 0.030578867
0.42760843 -0.17004606 0.0300125
0.4300482 -0.17031039 0.029458107
0.43233615 -0.16970584 0.029582042
0.52230769 -0.16932231 0.029032469
0.52431637 -0.16984512 0.028969385
0.5266813 -0.17003743 0.028899997
0.52915329 -0.17013058 0.02882872
0.53181547 -0.17003341 0.029221142
0.53452891 -0.17014557 0.029676383
0.53675199 -0.17017053 0.030340565
0.5389111 -0.17040014 0.030549457
0.42570257 -0.16863649 0.030783275
0.42766905 -0.16774394 0.030737761
0.43012717 -0.16752495 0.030170249
0.43250522 -0.16761293 0.029701501
0.43518406 -0.16750528 0.029526629
0.4384208 -0.16710746 0.029439321
0.44177312 -0.16640212 0.029352278
0.44301844 -0.16644906 0.029316381
0.52111435 -0.16724813 0.029090367
0.52389139 -0.16745597 0.029009098
0.52683192 -0.16746661 0.029025525
0.52904493 -0.16766842 0.029527284
0.53158784 -0.16738619 0.029973743
0.53410381 -0.16762145 0.030289356
0.53655106 -0.16785355 0.030645946
0.42857474 -0.16570665 0.030735612
0.43052557 -0.1652278 0.030685762
0.43279561 -0.16516623 0.030349152
0.43531182 -0.16520371 0.029857483
0.43828425 -0.16523105 0.029464914
0.4409191 -0.16500901 0.029392662
0.44349661 -0.16480371 0.029321842
0.44588739 -0.16478986 0.029254112
0.44794536 -0.16441692 0.029199988
0.51660085 -0.16387942 0.029257521
0.51875609 -0.16455027 0.029188557
0.52110136 -0.16487449 0.029118206
0.5239104 -0.16481449 0.029324984
0.52644324 -0.16508584 0.029714422
0.52924597 -0.1649486 0.03027134
0.53172791 -0.16503717 0.03064876
0.53429174 -0.16552922 0.030736994
0.43336633 -0.16312538 0.030629417
0.43531716 -0.1626465 0.030579571
0.43777677 -0.16293995 0.030172832
0.44081751 -0.16234107 0.029998126
0.44360617 -0.16211414 0.029683357
0.44608185 -0.16240613 0.029276175
0.44857243 -0.16249998 0.029204361
0.45079681 -0.16230659 0.029143432
0.45317006 -0.16184157 0.029081419
0.50386077 -0.1625368 0.028634384
0.50490248 -0.16236892 0.028606758
0.51175088 -0.16122033 0.029426023
0.51390618 -0.16189113 0.029357055
0.51625139 -0.16221538 0.029286705
0.51872337 -0.16230853 0.029215429
0.52127582 -0.16237207 0.029713923
0.52401048 -0.16227958 0.03006611
0.52650625 -0.16242003 0.030577213
0.52878726 -0.16247028 0.03082867
0.53111398 -0.1629518 0.030857068
0.43579358 -0.16100734 0.030585021
0.43787703 -0.16067158 0.030529732
0.44027448 -0.16024408 0.030466598
0.44330022 -0.15963311 0.030387746
0.44618496 -0.15988381 0.029886059
0.44859925 -0.15982383 0.029416483
0.45115769 -0.16010238 0.029158698
0.4536483 -0.16019624 0.029086884
0.45615464 -0.15987486 0.029019434
0.45855144 -0.15931173 0.028957887
0.46116734 -0.15923209 0.028884524
0.46417335 -0.15968561 0.028793912
0.46696296 -0.15986635 0.028712604
0.46930641 -0.15945566 0.028650809
0.47114551 -0.15919229 0.028601646
0.49550101 -0.15911466 0.028911382
0.49756873 -0.15919258 0.028851768
0.50062734 -0.15966295 0.02875947
0.50341594 -0.16007578 0.028675502
0.50535798 -0.15972283 0.028624436
0.50867581 -0.15890324 0.029540161
0.51085222 -0.15953556 0.029471043
0.51365381 -0.15942782 0.02954665
0.51624501 -0.15960769 0.029733935
0.51864123 -0.15986602 0.029913021
0.52126402 -0.15954287 0.030483611
0.52379221 -0.15996115 0.030791773
0.52635711 -0.16005744 0.031025644
0.52849615 -0.16072319 0.030957207
0.44377664 -0.15799394 0.030393183
0.44617414 -0.15756646 0.030330054
0.4488495 -0.15745611 0.030155307
0.45124972 -0.1575851 0.029768839
0.45374835 -0.15745689 0.029365873
0.45626017 -0.15702924 0.029140322
0.45875636 -0.15681474 0.029231086
0.46124458 -0.1569085 0.029159343
0.46406218 -0.15705363 0.029094325
0.46689478 -0.15728557 0.028744409
0.46954823 -0.15746874 0.028666936
0.47142401 -0.1573315 0.028615259
0.48773798 -0.15633643 0.029163986
0.49021924 -0.15642995 0.029092452
0.49279621 -0.15711889 0.029011296
0.49515036 -0.15744431 0.028940678
0.49763161 -0.15753783 0.028869135
0.50056309 -0.15752083 0.028786084
0.50323802 -0.15712768 0.028714674
0.50585026 -0.15688895 0.029060116
0.50819951 -0.15695927 0.029576186
0.5109874 -0.15694496 0.029925961
0.51354253 -0.15719451 0.03024032
0.51619238 -0.15711848 0.030347854
0.51863939 -0.15762185 0.030272543
0.5218392 -0.1574917 0.031016892
0.52355689 -0.15780635 0.031131217
0.44966054 -0.15573001 0.030252308
0.45160541 -0.15536432 0.030368051
0.45382941 -0.15487182 0.030477338
0.45624906 -0.1546846 0.030168252
0.45882189 -0.15417551 0.030260252
0.46130082 -0.15426892 0.030188775
0.46370599 -0.15442574 0.030050449
0.4667671 -0.15491417 0.029575868
0.46959159 -0.15501334 0.029361114
0.47193465 -0.15482259 0.029130038
0.47456741 -0.15418297 0.02956292
0.47706437 -0.15386279 0.029495722
0.47954562 -0.15395629 0.029424176
0.48211852 -0.15436397 0.029346395
0.48490608 -0.15457258 0.029264823
0.48780081 -0.15468168 0.029181354
0.49033594 -0.15460131 0.029292198
0.49271607 -0.15468225 0.029375253
0.49516156 -0.15488884 0.029470162
0.49784377 -0.15508744 0.029534617
0.50062335 -0.1549817 0.029660298
0.50333393 -0.15471229 0.029740361
0.5057776 -0.15415289 0.029927561
0.50818533 -0.15441683 0.03010626
0.51075846 -0.15459506 0.030447995
0.51359475 -0.15517032 0.030444168
0.45405692 -0.1529378 0.031160224
0.45647153 -0.15236846 0.031098252
0.45888615 -0.15179907 0.031036271
0.46135801 -0.15189224 0.030964997
0.4639143 -0.15208501 0.03079013
0.46672082 -0.15233542 0.030557467
0.46962461 -0.15232992 0.030308327
0.47212812 -0.15225135 0.029988034
0.47461596 -0.15228736 0.029833591
0.47709394 -0.15172693 0.030019827
0.47957048 -0.15182026 0.029948415
0.48204717 -0.1519136 0.029877007
0.48480928 -0.15214281 0.030096054
0.48766235 -0.15235385 0.029904852
0.49015751 -0.15224823 0.030043006
0.49277002 -0.15215568 0.030169984
0.49513856 -0.15210263 0.03025341
0.49785307 -0.15241329 0.030589603
0.5006659 -0.15251485 0.030611157
0.50315118 -0.15221632 0.030774927
0.50569266 -0.15219994 0.030702939
0.5079422 -0.15249032 0.0306357
0.50978136 -0.1527652 0.030580282
0.46142066 -0.1502437 0.030982295
0.46389261 -0.15033685 0.030911028
0.46657833 -0.15023172 0.030835964
0.46940666 -0.14999434 0.030758407
0.47216368 -0.14982311 0.030682091
0.4746356 -0.14991626 0.03061082
0.47695526 -0.14967351 0.030547757
0.47957948 -0.15010259 0.030468276
0.48205146 -0.15019573 0.030396998
0.48493534 -0.15030442 0.030313842
0.48781928 -0.1504131 0.030230692
0.4902778 -0.14989501 0.030894494
0.49258479 -0.14982152 0.030920791
0.49509928 -0.1497449 0.031032175
0.49767795 -0.15039031 0.030951479
0.50040376 -0.15076715 0.030869722
0.49064693 -0.14793245 0.031179577
0.49269912 -0.14800979 0.03112042
0.47268823 -0.33800396 0.033491701
0.47428975 -0.33846927 0.033440832
0.47711921 -0.3385759 0.033359244
0.47994876 -0.3386825 0.033277661
0.4822154 -0.33868694 0.033213239
0.48966527 -0.33864376 0.033002198
0.49917921 -0.33818746 0.033737779
0.50098354 -0.33845714 0.033683427
0.50280321 -0.33832404 0.033633307
0.46231508 -0.33599517 0.032809049
0.46413338 -0.33626693 0.03275428
0.46699652 -0.33633322 0.032872289
0.46961063 -0.33643025 0.033397213
0.4718565 -0.33664739 0.03353101
0.47436652 -0.33644748 0.033462048
0.47695047 -0.33662584 0.033386607
0.48756868 -0.3363373 0.032838292
0.48953998 -0.33661434 0.033029232
0.49140501 -0.33546984 0.032989502
0.50317025 -0.33662349 0.033642553
0.50571358 -0.33601344 0.033577383
0.50732422 -0.33607414 0.033530951
0.51215619 -0.33625624 0.033391625
0.45658126 -0.3336111 0.032999471
0.4592554 -0.3340216 0.032918777
0.46156517 -0.33434093 0.032849491
0.46408489 -0.33414024 0.032780264
0.46644989 -0.33411852 0.032713354
0.469183 -0.33394131 0.032868665
0.47207102 -0.33392784 0.033222914
0.47449937 -0.3340193 0.033152886
0.47692788 -0.33411086 0.033082873
0.47963887 -0.33428729 0.033064473
0.48244506 -0.3342371 0.03285804
0.48521811 -0.33425674 0.032178786
0.48753706 -0.33410206 0.032364842
0.4897626 -0.33395019 0.033053741
0.49252358 -0.33373025 0.032977886
0.49553934 -0.33319601 0.032898426
0.49849629 -0.33493471 0.03379482
0.5005402 -0.33420494 0.033745226
0.50335884 -0.33431116 0.033663955
0.50586146 -0.33424416 0.033593662
0.5078187 -0.33367252 0.033544701
0.51549989 -0.33315521 0.033332556
0.44948468 -0.33144671 0.033226043
0.45110771 -0.33150789 0.03317925
0.45354235 -0.33159962 0.033109039
0.45613623 -0.33177871 0.033033319
0.45903349 -0.33160168 0.032869708
0.46169767 -0.33149406 0.032545187
0.46406046 -0.33133963 0.032513216
0.46658829 -0.33127165 0.032408878
0.46918187 -0.33145136 0.032366492
0.47198689 -0.3314006 0.032223761
0.47471407 -0.33157787 0.03217458
0.47715175 -0.33166975 0.032104298
0.47958958 -0.3317616 0.032034002
0.48221311 -0.33166003 0.032127429
0.48477972 -0.33145821 0.031992741
0.48778629 -0.33136579 0.032139316
0.49010289 -0.33135334 0.032184843
0.49272737 -0.33153585 0.032633688
0.49546188 -0.3314901 0.032820325
0.49802604 -0.33167002 0.032845471
0.50035244 -0.3317655 0.033222966
0.50305665 -0.33154854 0.033371013
0.50570804 -0.33137223 0.033547886
0.50831318 -0.33127087 0.033558451
0.51072919 -0.33136192 0.033488795
0.51315826 -0.33110771 0.033422749
0.5182659 -0.33110812 0.033277709
0.43905798 -0.32780182 0.033564299
0.44075087 -0.32856336 0.032882117
0.44308639 -0.32875159 0.032771941
0.44512281 -0.32882032 0.032379806
0.44957718 -0.32901123 0.033251602
0.45120418 -0.32906967 0.033093553
0.45363486 -0.32916415 0.033134609
0.45617369 -0.3289541 0.032701124
0.45869511 -0.32895818 0.032146726
0.4614467 -0.32861942 0.031918585
0.46428254 -0.32913429 0.031832095
0.46672651 -0.3292264 0.031761631
0.46917045 -0.32931852 0.03169116
0.47161439 -0.32941058 0.031620696
0.47446573 -0.32951805 0.031538479
0.47731695 -0.32962552 0.031456277
0.47988391 -0.32954738 0.031384271
0.48223585 -0.32899478 0.031323895
0.48469523 -0.32867944 0.031257689
0.48632455 -0.32874084 0.031210721
0.49059081 -0.32974389 0.03207846
0.49263504 -0.32941443 0.032024205
0.49518272 -0.32920557 0.031954281
0.49787223 -0.32921186 0.032127947
0.50055742 -0.32881901 0.032267872
0.50307679 -0.32860905 0.032403987
0.50555879 -0.32879829 0.032764848
0.50825191 -0.32875612 0.033043575
0.51087904 -0.32893941 0.033290245
0.51323688 -0.32903618 0.033444494
0.51605558 -0.32914236 0.033363223
0.51848686 -0.32883063 0.033297788
0.43830588 -0.32614425 0.033493686
0.44074273 -0.32623935 0.033534557
0.44317898 -0.32632041 0.033130933
0.44521567 -0.32637551 0.032405466
0.44965425 -0.32698169 0.033272892
0.45131901 -0.32661235 0.032451745
0.45375946 -0.32670432 0.032381374
0.45612714 -0.32637864 0.032095581
0.45825011 -0.32686672 0.032029644
0.49839294 -0.32759896 0.03188172
0.50126421 -0.32689416 0.031808332
0.50330848 -0.3265647 0.031754095
0.50573134 -0.32625383 0.031800047
0.50832444 -0.32644656 0.032249674
0.51104313 -0.326406 0.032436695
0.51363355 -0.32643485 0.03266295
0.51617289 -0.32638827 0.033058271
0.51886743 -0.32593584 0.033220436
0.52089608 -0.32555994 0.033267219
0.43824139 -0.32362479 0.033635844
0.44083524 -0.3238039 0.033560116
0.44327217 -0.32387719 0.0330454
0.44522709 -0.32406643 0.031831592
0.451965 -0.32469884 0.031566244
0.50846535 -0.32452333 0.031631269
0.51081783 -0.32410389 0.031569332
0.51323104 -0.32372934 0.031736009
0.51601094 -0.32333487 0.031885508
0.51867419 -0.32363075 0.032552261
0.52129585 -0.3236039 0.033005651
0.52340388 -0.32323417 0.033222932
0.43808737 -0.32126141 0.033667572
0.4409278 -0.32136843 0.033585668
0.44286928 -0.32160419 0.033527814
0.51405895 -0.32168546 0.031505287
0.51641136 -0.321266 0.031443328
0.51889378 -0.32106811 0.03159745
0.52124995 -0.32128739 0.032306142
0.52380621 -0.32127562 0.032961305
0.52646381 -0.32052585 0.033167377
0.52808464 -0.32031801 0.033123761
0.43816444 -0.31923181 0.033688869
0.44083947 -0.31941393 0.033610802
0.51957196 -0.31918326 0.031377673
0.5215838 -0.31881869 0.031324778
0.52397436 -0.31877187 0.031803127
0.52645808 -0.31828186 0.03211607
0.52904016 -0.31831953 0.032897417
0.5312041 -0.31781363 0.033064157
0.52235937 -0.31712034 0.03132239
0.52416945 -0.31653816 0.031277739
0.52654356 -0.31577992 0.031362008
0.52948886 -0.31594962 0.032133952
0.53158784 -0.31598371 0.032740939
0.5339033 -0.31575438 0.03301134
0.52735198 -0.31405655 0.031216085
0.52922797 -0.31376654 0.031666398
0.53200626 -0.3136149 0.032089483
0.53443736 -0.31360015 0.032687608
0.53692573 -0.31304583 0.032873482
0.53913337 -0.3125324 0.032900106
0.54275197 -0.31330439 0.033788878
0.41240323 -0.30963305 0.03353101
0.41476965 -0.31032962 0.032955531
0.41742525 -0.31064892 0.032576282
0.42002511 -0.3106479 0.03230238
0.53277898 -0.31192306 0.032087117
0.53453529 -0.31097692 0.032048196
0.53707361 -0.31056741 0.032253716
0.53962058 -0.31057659 0.032808859
0.54270297 -0.31085488 0.033485126
0.54419565 -0.31054607 0.0337798
0.40973908 -0.30766726 0.033629429
0.41205782 -0.30798781 0.033559863
0.41455442 -0.30806601 0.032487605
0.4173705 -0.30801576 0.032408223
0.42011833 -0.3081938 0.032328129
0.42250305 -0.30843493 0.032757849
0.53723395 -0.30831155 0.032002404
0.53961629 -0.30818912 0.032436416
0.54199123 -0.30806845 0.032870609
0.54520613 -0.30811587 0.03377923
0.54673946 -0.30702555 0.033748299
0.40970674 -0.30545095 0.033656001
0.41215071 -0.30554301 0.033585519
0.41448724 -0.3055239 0.032518938
0.41723508 -0.30570194 0.032438848
0.4200511 -0.30565169 0.032359455
0.42206284 -0.30604023 0.032547951
0.53975135 -0.30597678 0.031957936
0.54222548 -0.30564085 0.032463279
0.54489303 -0.30515072 0.033072092
0.547342 -0.30526242 0.033751599
0.54923761 -0.30470878 0.033704162
0.40694213 -0.30306166 0.033762146
0.41219291 -0.3030442 0.033168595
0.41458049 -0.30306977 0.032544695
0.41703376 -0.30316222 0.032473952
0.41957098 -0.30343992 0.032398693
0.54216516 -0.30353016 0.03191771
0.54467219 -0.30272144 0.032356117
0.54749435 -0.30296615 0.033273615
0.5500043 -0.30302995 0.033701833
0.55173564 -0.30239198 0.033660054
0.41222048 -0.30052319 0.03264118
0.41476172 -0.30045509 0.032569811
0.41715062 -0.30031037 0.03258701
0.41874695 -0.30117875 0.032448262
0.54481703 -0.30049857 0.031877492
0.54718482 -0.3003912 0.032311738
0.54999727 -0.30064484 0.033229407
0.5522303 -0.29998261 0.033562724
0.40253162 -0.2968812 0.032958478
0.40413606 -0.29776087 0.032902718
0.40956584 -0.29789102 0.032747027
0.4123292 -0.29766002 0.032671232
0.41476974 -0.29771629 0.033146974
0.41694084 -0.29756254 0.033541858
0.54733449 -0.29816386 0.031833023
0.54981136 -0.29793465 0.032227099
0.55256611 -0.29750776 0.033109397
0.55453336 -0.29747468 0.033637509
0.40017158 -0.29433462 0.033054948
0.40205896 -0.29495189 0.032994222
0.40422931 -0.29530674 0.032928482
0.40668258 -0.29539922 0.032857746
0.40947917 -0.29543632 0.032777894
0.4121536 -0.29472542 0.032801136
0.4149971 -0.29504097 0.033626229
0.4166109 -0.29550987 0.033574983
0.54985195 -0.29582909 0.031788554
0.55240893 -0.29498544 0.032187469
0.55504745 -0.29516417 0.033376802
0.55685383 -0.29454845 0.033605486
0.39991283 -0.29252258 0.033083279
0.40186924 -0.29276016 0.033024967
0.40440816 -0.29255792 0.032955218
0.40673095 -0.29289138 0.032551903
0.40909234 -0.29241255 0.032187223
0.41171345 -0.29231197 0.032750607
0.41456872 -0.2926507 0.033666059
0.55304652 -0.2925413 0.031735886
0.55522972 -0.29277393 0.032671675
0.55762774 -0.29251549 0.033516083
0.55936712 -0.29183042 0.033565566
0.39944333 -0.28998768 0.033125952
0.40189943 -0.29000574 0.033055987
0.40434107 -0.28988212 0.032362804
0.40674827 -0.28991199 0.031918928
0.40931001 -0.28970826 0.032515511
0.41179395 -0.28983849 0.032665782
0.41403064 -0.29029682 0.033208355
0.55513036 -0.29017946 0.031794999
0.55756861 -0.29001942 0.032728091
0.55994046 -0.28964365 0.033374503
0.39698353 -0.28663671 0.033234589
0.40175918 -0.28709483 0.032343324
0.40430883 -0.28724095 0.032019112
0.40685746 -0.28703794 0.031949084
0.40933383 -0.28715047 0.031988628
0.41202486 -0.28750336 0.032172132
0.55578554 -0.28779978 0.031712979
0.55771053 -0.28705657 0.031848822
0.56019944 -0.28732449 0.033010479
0.56195664 -0.28710616 0.033546701
0.39483571 -0.28389335 0.033327311
0.39645568 -0.28436399 0.033275872
0.39925635 -0.28461316 0.03285997
0.40186477 -0.28430054 0.032122545
0.40448838 -0.28448164 0.032045946
0.40695101 -0.28457448 0.031974941
0.40954003 -0.28494617 0.031897113
0.41145802 -0.2849499 0.031842612
0.55794239 -0.28460687 0.031688683
0.56017935 -0.28477314 0.032401394
0.56218588 -0.28464091 0.033268593
0.39249119 -0.28093773 0.033428103
0.39420176 -0.281719 0.033370495
0.39654893 -0.28190988 0.033301622
0.39891085 -0.28189051 0.032678969
0.40170893 -0.28190994 0.032154638
0.40483484 -0.28257596 0.032058168
0.4070321 -0.28243947 0.031997342
0.41029689 -0.2830559 0.031897515
0.55844826 -0.28265524 0.031696897
0.56025034 -0.28214923 0.031833492
0.56271964 -0.28203347 0.032683335
0.5646463 -0.28135806 0.032536402
0.39223248 -0.27912572 0.033456415
0.39418888 -0.27936327 0.033398122
0.39660388 -0.27940863 0.033106685
0.39892951 -0.27933821 0.032263335
0.40128562 -0.27952978 0.032194201
0.40549645 -0.27958569 0.032073975
0.40680987 -0.27963519 0.032036114
0.40874875 -0.28053057 0.03197068
0.56081396 -0.27987611 0.031661887
0.5629459 -0.27927685 0.031908426
0.56472284 -0.27934405 0.032557532
0.39150792 -0.27664074 0.033505768
0.39387321 -0.27689373 0.033435658
0.39658028 -0.276806 0.032470513
0.39900506 -0.27685007 0.032178808
0.4012503 -0.27666867 0.031352896
0.40555882 -0.27794337 0.03209123
0.56118238 -0.27816901 0.031671181
0.56286073 -0.27661249 0.031641539
0.56521726 -0.2769424 0.032571282
0.38929743 -0.2732189 0.032607675
0.39110428 -0.27433175 0.033543944
0.39390597 -0.27436292 0.033130538
0.3966541 -0.27431849 0.032386038
0.39900726 -0.2742582 0.031652924
0.40142336 -0.27427578 0.031250611
0.40308702 -0.27392575 0.031207412
0.56335711 -0.2742016 0.031655341
0.56541359 -0.27447355 0.032371953
0.56764191 -0.27385828 0.032204624
0.38864544 -0.27144688 0.032646693
0.39390624 -0.2717863 0.032660119
0.39667127 -0.27174878 0.031970631
0.39904541 -0.2717098 0.031347837
0.4015173 -0.27180299 0.031276561
0.40316531 -0.2718651 0.031229049
0.5634492 -0.27177548 0.031680804
0.56531167 -0.27193198 0.031959597
0.56776077 -0.27155232 0.032561433
0.56947339 -0.27105218 0.032518595
0.38699079 -0.26902035 0.032721758
0.38863254 -0.26908219 0.032674432
0.39116105 -0.26925719 0.032934085
0.39393821 -0.26924169 0.032355174
0.39666739 -0.26914388 0.03144506
0.39890987 -0.26984745 0.03137324
0.56352603 -0.26975369 0.031702027
0.5654977 -0.26935557 0.031650636
0.56777966 -0.26882327 0.03231962
0.56995261 -0.26905331 0.032528117
0.38676229 -0.26638025 0.032758813
0.38872612 -0.26661876 0.032700282
0.39118871 -0.26671156 0.032629281
0.39395568 -0.26666948 0.031967569
0.39613551 -0.26685384 0.031486668
0.56535393 -0.26662809 0.031686287
0.56790829 -0.26639149 0.032033358
0.57044709 -0.26665169 0.032541867
0.57207298 -0.26630959 0.032499656
0.38680306 -0.26412311 0.032950509
0.3913683 -0.26395229 0.032656107
0.39375877 -0.2642158 0.031784788
0.39522296 -0.26372406 0.031548798
0.56597197 -0.26397431 0.031699449
0.56808096 -0.26392406 0.031890262
0.57062322 -0.26394472 0.032568194
0.57291019 -0.26386237 0.032304104
0.38668966 -0.26149052 0.032817464
0.38892886 -0.26128122 0.032756295
0.391193 -0.26119927 0.032581788
0.3935464 -0.26170045 0.031619832
0.56789082 -0.26141453 0.031674586
0.57036519 -0.26132965 0.032355662
0.57335418 -0.26115453 0.032122739
0.38412845 -0.25781101 0.032932773
0.388877 -0.2583189 0.032792054
0.39154625 -0.25870284 0.031961445
0.39320311 -0.25897041 0.031661179
0.56845367 -0.25877476 0.031689148
0.57057703 -0.25859675 0.031916764
0.57333797 -0.25858885 0.032219592
0.38420644 -0.25575814 0.032954324
0.38584816 -0.25581998 0.032906979
0.38868788 -0.25587824 0.032658923
0.39131424 -0.25603515 0.031748787
0.56891429 -0.255784 0.031710684
0.57073182 -0.2559844 0.031838659
0.57320333 -0.25612265 0.032385357
0.57521158 -0.25612971 0.031861354
0.38388956 -0.25327918 0.032992005
0.38594174 -0.25335652 0.032932837
0.38873112 -0.25333628 0.032436989
0.3912546 -0.25337437 0.031781275
0.57062328 -0.25341877 0.031689525
0.57321644 -0.25352255 0.032329325
0.57497859 -0.25351098 0.032565258
0.38603535 -0.25089303 0.032958686
0.38880801 -0.25084269 0.032380294
0.39117643 -0.25077716 0.031813547
0.57071549 -0.25099266 0.031714983
0.57333499 -0.2509217 0.032005236
0.5750857 -0.25069138 0.03259486
0.38407671 -0.24835227 0.033043712
0.3861289 -0.24842957 0.032984544
0.3885242 -0.24841353 0.032583211
0.39075148 -0.24838798 0.03185327
0.57121181 -0.24858175 0.031728793
0.57340568 -0.24829647 0.032003287
0.57517749 -0.24827458 0.032620221
0.38436773 -0.2461018 0.033061489
0.38622248 -0.24596612 0.033010393
0.38863081 -0.24579391 0.032643851
0.39054033 -0.24580051 0.031889211
0.5713194 -0.24575126 0.031758498
0.57350641 -0.24561001 0.032198265
0.57575035 -0.24632317 0.031626046
0.38385344 -0.24340986 0.033107251
0.38633165 -0.24309207 0.033040557
0.38865179 -0.2430782 0.032674681
0.39063427 -0.24332772 0.031915158
0.57142687 -0.24292077 0.0317882
0.57340395 -0.24322471 0.032128736
0.57526714 -0.24264261 0.032282658
0.38376522 -0.2403228 0.033145487
0.38627976 -0.24012974 0.033076309
0.38881251 -0.24058844 0.032623902
0.39072821 -0.24085492 0.031941105
0.57151902 -0.24049462 0.031813655
0.57342458 -0.24055758 0.032159016
0.57532024 -0.24042512 0.032206763
0.38373724 -0.23781362 0.033175312
0.38612399 -0.23773909 0.033108406
0.38891336 -0.23788291 0.032299902
0.39071092 -0.23769005 0.031978231
0.57140142 -0.23826304 0.031842835
0.57321125 -0.23794165 0.03206801
0.57537353 -0.23820515 0.032130897
0.38362309 -0.23530878 0.032921698
0.38580716 -0.23526017 0.033146087
0.38857937 -0.23518024 0.032568052
0.39094737 -0.23508507 0.032001659
0.57115591 -0.23513579 0.031885993
0.57315636 -0.23529176 0.032027476
0.57535666 -0.23537508 0.031763934
0.38384855 -0.23271938 0.033231109
0.38590074 -0.2327967 0.033171948
0.3886731 -0.23271209 0.032593947
0.39104131 -0.23261225 0.032027617
0.57095128 -0.23260593 0.031921081
0.57331628 -0.23256676 0.0321045
0.57512379 -0.23280776 0.032467257
0.38394213 -0.23025592 0.033256974
0.38589776 -0.23015703 0.032757916
0.38876688 -0.23024398 0.032619856
0.39113522 -0.23013945 0.032053564
0.57110995 -0.22995089 0.0319473
0.57347703 -0.23004572 0.032186829
0.57506073 -0.23011817 0.032833658
0.38396215 -0.22765686 0.032952979
0.38587332 -0.22746484 0.032233942
0.38862327 -0.22763248 0.032487404
0.39105707 -0.22754227 0.03208584
0.57120216 -0.22752476 0.031972766
0.57347542 -0.22746617 0.032293692
0.57515258 -0.22770137 0.032859027
0.38430363 -0.22534207 0.03230308
0.38596335 -0.22509506 0.032258809
0.38854608 -0.22498605 0.032186732
0.39080423 -0.2252775 0.032119229
0.57099497 -0.22498611 0.032008022
0.5734815 -0.22499789 0.032437526
0.38668701 -0.22233647 0.032270186
0.38853312 -0.22261241 0.032214567
0.39060876 -0.22227791 0.032159496
0.57099766 -0.22225289 0.032039583
0.57312423 -0.22242875 0.032431923
0.38864276 -0.21972746 0.032244842
0.39103127 -0.21930158 0.032181945
0.56672966 -0.21879524 0.031200349
0.57110512 -0.21942239 0.032069292
0.57279134 -0.21979462 0.032684088
0.38662457 -0.2169982 0.032333739
0.38875231 -0.21684253 0.032275118
0.39122427 -0.21693571 0.032203846
0.39308602 -0.2167995 0.032152548
0.56677592 -0.21757749 0.03121312
0.56722796 -0.21637505 0.031214193
0.57064044 -0.21694507 0.032202106
0.5725897 -0.21702233 0.032855298
0.38716698 -0.21513191 0.032339931
0.38905504 -0.21433622 0.032406695
0.39131817 -0.21446291 0.032229796
0.39379013 -0.21455607 0.03215852
0.56608772 -0.21429962 0.031270593
0.56778163 -0.21451585 0.031442322
0.57073724 -0.21442421 0.032522384
0.57262993 -0.21449652 0.033083476
0.3894895 -0.21191765 0.03231119
0.39141214 -0.21199013 0.032255746
0.39388406 -0.21208327 0.03218447
0.39553201 -0.21214537 0.032136958
0.56592 -0.21158336 0.031306803
0.56793749 -0.21204521 0.031644344
0.57062256 -0.21195859 0.032862015
0.57249749 -0.21267633 0.033108324
0.39177027 -0.20980243 0.032270897
0.393978 -0.20961046 0.032210425
0.39600143 -0.20909712 0.032158904
0.56571293 -0.20888495 0.031343903
0.56825441 -0.2093683 0.032133207
0.57051992 -0.2094989 0.033090077
0.39242396 -0.20707558 0.032283891
0.39408758 -0.20672554 0.0322407
0.3961632 -0.20639104 0.032185629
0.56397694 -0.20568372 0.031430244
0.56586337 -0.2064926 0.031617433
0.56806368 -0.20684063 0.032468021
0.56989306 -0.20693088 0.033248764
0.39419717 -0.20384061 0.032270972
0.39657006 -0.20382687 0.032203753
0.56384343 -0.20384948 0.031455271
0.56557453 -0.20401222 0.031768035
0.56789798 -0.20398144 0.032910768
0.56958222 -0.20449889 0.033285737
0.39452204 -0.20149446 0.032288905
0.39676306 -0.20146099 0.03222565
0.39844233 -0.20069881 0.032186776
0.56342489 -0.20149638 0.031494398
0.56547141 -0.2012978 0.032257136
0.56766123 -0.20147018 0.033125218
0.39476573 -0.19973482 0.032302335
0.39656019 -0.19890195 0.032261029
0.39884081 -0.19889785 0.032196321
0.56100833 -0.19825499 0.031600535
0.56293386 -0.19909532 0.031702865
0.56552809 -0.19882339 0.032799553
0.56769645 -0.1989419 0.033403594
0.39636537 -0.19651119 0.032460976
0.39926121 -0.1965199 0.032211892
0.40131593 -0.19564807 0.032163627
0.56081492 -0.19621523 0.031629626
0.56281978 -0.19646613 0.032036666
0.56532812 -0.19638138 0.033333737
0.5674417 -0.19715743 0.03343147
0.39629084 -0.19391493 0.032659888
0.39903495 -0.19378741 0.032249942
0.40175235 -0.19321112 0.032179449
0.40369931 -0.19264248 0.032130748
0.55850881 -0.19274087 0.031735312
0.56053245 -0.19375129 0.031952005
0.56308007 -0.1939241 0.03295609
0.56486946 -0.19410239 0.033539888
0.39881802 -0.19080764 0.032290585
0.40168712 -0.19083056 0.03228581
0.40409774 -0.19084153 0.032140262
0.55814499 -0.19072857 0.031768937
0.56018817 -0.19088131 0.032376125
0.56249398 -0.19131045 0.033210874
0.56440401 -0.19220242 0.033575088
0.39713678 -0.18874748 0.03286241
0.39899623 -0.18815501 0.032733098
0.4015314 -0.18835784 0.033060461
0.40419096 -0.18841614 0.032380082
0.40635911 -0.18779004 0.032111377
0.55571306 -0.18789309 0.031870812
0.55772418 -0.18830922 0.032094739
0.56047881 -0.18826541 0.033160411
0.5626176 -0.18880722 0.033665113
0.39920211 -0.18560283 0.033340398
0.40166473 -0.18569562 0.033269402
0.40439725 -0.18590994 0.032772448
0.40678832 -0.18580155 0.032122191
0.55521083 -0.18563661 0.032022353
0.5575341 -0.18579228 0.032459084
0.5602479 -0.18592478 0.033583857
0.56220227 -0.18647215 0.033703923
0.39982215 -0.18370743 0.033344734
0.40175834 -0.18323217 0.033295248
0.40422094 -0.18332498 0.033224251
0.40688547 -0.18346651 0.03234655
0.40933183 -0.18284622 0.032084163
0.5529173 -0.18304533 0.032006312
0.55527502 -0.18329851 0.032436665
0.55762547 -0.18355004 0.032867238
0.5602808 -0.18397948 0.033787355
0.40233818 -0.18095149 0.033305187
0.40431452 -0.18086152 0.033250093
0.40677711 -0.18095431 0.033179093
0.40951771 -0.18044265 0.032260619
0.4117986 -0.18035966 0.032042891
0.54663324 -0.180035 0.031219125
0.55085593 -0.18025769 0.032097112
0.55273134 -0.18082981 0.032237332
0.55499363 -0.18090355 0.032889225
0.55715811 -0.18164273 0.032902569
0.40273514 -0.17915732 0.033314675
0.40450677 -0.17850456 0.033271916
0.40688625 -0.17808026 0.033209253
0.40933073 -0.17795382 0.032959405
0.41200972 -0.17801628 0.032140974
0.4144462 -0.17763917 0.031999189
0.54568464 -0.17816301 0.031267725
0.54730248 -0.17818028 0.031555071
0.54994905 -0.17831056 0.032228772
0.55235767 -0.17828758 0.03274424
0.55457598 -0.17857589 0.033011395
0.40527534 -0.17576395 0.032948315
0.40699551 -0.17520623 0.033239421
0.40945807 -0.17529903 0.033168405
0.41207233 -0.17561077 0.03275707
0.41467366 -0.17556553 0.032100104
0.41736582 -0.17499772 0.031946845
0.54479891 -0.17547916 0.031457331
0.5473392 -0.1757073 0.032333009
0.54985291 -0.17583619 0.032748464
0.5524177 -0.17589621 0.033103697
0.40718776 -0.17284927 0.033261228
0.40955165 -0.17283557 0.033194263
0.41201425 -0.17292838 0.033123255
0.41473597 -0.17324154 0.032657541
0.41734937 -0.17275831 0.032050196
0.41987348 -0.17234074 0.031906392
0.42181695 -0.17186368 0.031856716
0.54042566 -0.17164004 0.031492561
0.54220158 -0.17261375 0.031430848
0.5446555 -0.17279784 0.032159422
0.5472225 -0.17333533 0.033049993
0.54989517 -0.17283423 0.033210766
0.5520553 -0.17389162 0.033137184
0.41210783 -0.1704649 0.033149112
0.41457045 -0.17055771 0.033078104
0.41723061 -0.1703499 0.032838222
0.41996184 -0.1699381 0.032398578
0.4226045 -0.17013928 0.031854317
0.42438284 -0.16948403 0.031811386
0.53807455 -0.16910315 0.031588674
0.53977859 -0.16988146 0.031531285
0.54222572 -0.17013666 0.032059118
0.54463261 -0.17019725 0.033223987
0.54697323 -0.17056862 0.033319958
0.54894447 -0.17053492 0.03326438
0.4122014 -0.16800144 0.033174962
0.41467962 -0.16768366 0.033108268
0.41706952 -0.16752703 0.033042211
0.41962048 -0.1674587 0.032970566
0.42253342 -0.16764688 0.03248547
0.42517036 -0.16775964 0.031808995
0.4269487 -0.16710439 0.031766087
0.53729773 -0.16718107 0.031733025
0.53962624 -0.1674698 0.032333113
0.54212987 -0.16753274 0.03309245
0.5443815 -0.1678562 0.033424951
0.41282144 -0.16610603 0.033179283
0.41725138 -0.16490242 0.033067424
0.419714 -0.16499525 0.032996416
0.42233768 -0.16517635 0.032919817
0.42518681 -0.16522275 0.032409593
0.42778569 -0.16501822 0.031857405
0.43007433 -0.1644707 0.031707805
0.4320178 -0.16399366 0.031658113
0.53255773 -0.16399863 0.031804413
0.53443265 -0.16456082 0.031869736
0.536816 -0.16494723 0.032244213
0.53952646 -0.16494904 0.03323916
0.54214293 -0.16487946 0.033522975
0.54399848 -0.16575925 0.033460081
0.41734502 -0.16243896 0.033093274
0.41980764 -0.16253178 0.03302227
0.42227024 -0.16262457 0.032951266
0.4250285 -0.16280328 0.032870866
0.42794532 -0.16255546 0.032699957
0.43038213 -0.16215943 0.03199866
0.43280533 -0.16226925 0.031655725
0.43458369 -0.16161402 0.031612813
0.52992481 -0.16172312 0.031905513
0.53191507 -0.1620696 0.032045085
0.53435892 -0.16239446 0.032438822
0.53701049 -0.16232483 0.033198055
0.53927082 -0.16234161 0.033633903
0.54113668 -0.16295184 0.033573847
0.42004663 -0.16056718 0.033038221
0.42236379 -0.16016109 0.032977115
0.42491236 -0.15995814 0.032907095
0.42763606 -0.15986641 0.032830808
0.43067521 -0.15975094 0.032645799
0.43303278 -0.15982328 0.03217781
0.43539721 -0.15989517 0.031709645
0.43795788 -0.15967755 0.031539395
0.44044551 -0.15935858 0.031472445
0.4429487 -0.15862747 0.03140983
0.52459699 -0.15880203 0.032090604
0.52661294 -0.15942208 0.03202619
0.52914184 -0.15957728 0.032238439
0.53143525 -0.15993892 0.032772601
0.53446048 -0.16014789 0.033351243
0.53680551 -0.15991303 0.033631969
0.53874898 -0.1600948 0.033674724
0.4229838 -0.15826571 0.032981455
0.42493558 -0.15737988 0.032936271
0.42699555 -0.15725192 0.032879256
0.43028679 -0.15717037 0.032786734
0.43315983 -0.15727864 0.032703903
0.43568107 -0.15755181 0.032447234
0.43805936 -0.15748538 0.031978756
0.44052538 -0.15741032 0.031659473
0.4429363 -0.15703766 0.031519528
0.44559801 -0.15676688 0.03135613
0.4483985 -0.1563565 0.031281337
0.51597625 -0.15615532 0.031365603
0.51841402 -0.15665679 0.031290561
0.52082545 -0.15693668 0.031343915
0.52394998 -0.15704343 0.032129347
0.52648228 -0.15707512 0.032523956
0.52881134 -0.15757181 0.032842744
0.53083855 -0.15809469 0.032922059
0.53538227 -0.15814571 0.033792883
0.53702986 -0.15739793 0.033754751
0.5386467 -0.15745886 0.033708125
0.42750737 -0.15459864 0.032895416
0.43055186 -0.15483086 0.032806288
0.43295777 -0.15472931 0.03273914
0.43574488 -0.15484039 0.033158939
0.43819854 -0.15476201 0.032840051
0.44065773 -0.15474026 0.03260373
0.44312409 -0.1546023 0.03236096
0.44571036 -0.15465535 0.031916093
0.44843858 -0.15449527 0.03145567
0.45108083 -0.15453158 0.031226292
0.51135963 -0.15372849 0.031524785
0.51369125 -0.15432838 0.031451624
0.51609814 -0.15442784 0.031482175
0.51862067 -0.15439034 0.031739693
0.52127731 -0.15476893 0.031846777
0.52379698 -0.15463491 0.032661803
0.52632987 -0.15483543 0.033087797
0.52849638 -0.15556748 0.033017814
0.53726524 -0.1554631 0.033770461
0.53872347 -0.15543708 0.03372936
0.43059 -0.15279604 0.032828748
0.43293387 -0.1525699 0.032864854
0.43570337 -0.15231095 0.033689626
0.43840814 -0.15224905 0.033613518
0.44078901 -0.15209301 0.033547726
0.44324288 -0.15207054 0.03331155
0.44570327 -0.15181662 0.032744396
0.44858772 -0.15231441 0.03216932
0.45130661 -0.15236405 0.032014575
0.45379156 -0.1520649 0.032178346
0.45598328 -0.15156013 0.032121956
0.45888755 -0.15084724 0.032047737
0.50386524 -0.15160282 0.031762213
0.50551629 -0.15125543 0.031719338
0.50845695 -0.15169157 0.031721737
0.51101553 -0.15170433 0.03194277
0.51351374 -0.15202929 0.03215025
0.51584864 -0.15211263 0.032234564
0.51881808 -0.15192434 0.032477248
0.52142555 -0.1521612 0.03284115
0.52364522 -0.15223433 0.033194136
0.52534276 -0.15300967 0.033136964
0.43633795 -0.15069644 0.033690289
0.43852341 -0.14975478 0.033639118
0.44089779 -0.14922984 0.03357777
0.44335106 -0.1493223 0.033507034
0.44580433 -0.14941475 0.033436298
0.44824931 -0.14968324 0.033030275
0.45112008 -0.14967442 0.032782111
0.45398769 -0.14978248 0.032699425
0.45652452 -0.14958474 0.03243728
0.45895004 -0.14897163 0.032317776
0.46141255 -0.14929774 0.031993959
0.46387514 -0.14939053 0.031922963
0.46643242 -0.14939554 0.031850278
0.46923158 -0.14904417 0.03177486
0.47211501 -0.14887872 0.031694889
0.47457758 -0.14897153 0.031623889
0.47716641 -0.14883414 0.031551961
0.47950289 -0.14915714 0.031481873
0.48212647 -0.14933825 0.031405278
0.48495322 -0.14928779 0.031325586
0.48771149 -0.1494665 0.031245194
0.48938444 -0.14870721 0.031206459
0.4956111 -0.14899795 0.032026745
0.4983092 -0.14965259 0.03194255
0.50074196 -0.14954878 0.031874664
0.50312304 -0.14959034 0.032114401
0.50560486 -0.14921954 0.032279093
0.50827926 -0.14934899 0.032449014
0.51114976 -0.14922732 0.032683346
0.51343495 -0.14929734 0.032934461
0.51615173 -0.14945009 0.033038963
0.51879352 -0.14967665 0.033179615
0.52140838 -0.14960949 0.033288032
0.52334994 -0.14984523 0.033230178
0.44344425 -0.14686817 0.033532791
0.44589758 -0.14696063 0.033462048
0.44835085 -0.14705308 0.033391319
0.45080411 -0.14714552 0.033320576
0.45376053 -0.14692926 0.03323913
0.45647386 -0.14683789 0.033163134
0.45901278 -0.14663567 0.033093374
0.46146831 -0.14695995 0.032769781
0.46394399 -0.14687461 0.032450344
0.46642438 -0.14678866 0.032130796
0.4692947 -0.14689682 0.032048032
0.47216508 -0.14700501 0.031965271
0.47468722 -0.14698373 0.031951614
0.47708413 -0.14654903 0.032080974
0.47950721 -0.14681976 0.032259144
0.48219118 -0.14694643 0.032217193
0.48500863 -0.14700158 0.032065086
0.48769259 -0.14712824 0.032023136
0.49011812 -0.14698981 0.032205973
0.492524 -0.14691181 0.032472037
0.4951643 -0.14706676 0.032633476
0.49793786 -0.14745617 0.032621663
0.50052351 -0.14697918 0.032834109
0.50285643 -0.14696535 0.032844976
0.50572282 -0.14649436 0.033041894
0.5083735 -0.14658543 0.032892801
0.51093662 -0.14687379 0.033344213
0.51338553 -0.14686817 0.033547591
0.51582015 -0.14695992 0.033477396
0.51866049 -0.14706695 0.033395492
0.52150095 -0.14717399 0.033313602
0.52312404 -0.14723516 0.033266801
0.44854239 -0.14470506 0.033413056
0.45089734 -0.14469141 0.033346329
0.45344755 -0.14419173 0.033279702
0.45635816 -0.14400353 0.033199217
0.45907494 -0.14499958 0.033110548
0.46182147 -0.14455694 0.033037674
0.46401256 -0.14436644 0.032977659
0.46646583 -0.1444589 0.03290692
0.46932802 -0.14456676 0.032824393
0.47220567 -0.14426561 0.032746166
0.47458887 -0.14424369 0.032678738
0.47712776 -0.14404148 0.032608986
0.47964093 -0.14397217 0.032720316
0.48220155 -0.14412594 0.033035614
0.48497871 -0.14451614 0.033023693
0.48764572 -0.14457817 0.033054434
0.49000958 -0.14460556 0.033055201
0.49240059 -0.14463308 0.033168886
0.49534214 -0.14504997 0.033080533
0.49819335 -0.14515743 0.03299832
0.5062992 -0.14443314 0.033777002
0.50844961 -0.14416189 0.033719081
0.51104343 -0.14434093 0.033643346
0.51347804 -0.14443269 0.033573151
0.51591271 -0.14452443 0.033502955
0.51873767 -0.14503738 0.033416793
0.45658895 -0.14217518 0.033213824
0.46248579 -0.14144164 0.033054858
0.46410576 -0.1419123 0.03300342
0.46655908 -0.14200477 0.032932669
0.46902785 -0.14168818 0.032866236
0.47180641 -0.14150931 0.032789394
0.47476768 -0.14149489 0.032705475
0.47729555 -0.14150088 0.032733664
0.47949085 -0.14168584 0.03346955
0.48200873 -0.14169115 0.033498034
0.48486006 -0.1417986 0.033415824
0.48771128 -0.14190607 0.033333611
0.49015522 -0.14199816 0.033263147
0.49175358 -0.14287449 0.033207625
0.50812709 -0.14195466 0.03375379
0.51090991 -0.14250669 0.033668362
0.51353973 -0.14280903 0.033590198
0.46007913 -0.14012213 0.033138484
0.4619424 -0.13957794 0.033091858
0.46418348 -0.1398672 0.033024877
0.46663675 -0.13995965 0.032954138
0.46910557 -0.13964307 0.032887697
0.47456646 -0.13895518 0.032740589
0.47965765 -0.13915426 0.033594161
0.48210159 -0.13924634 0.03352369
0.48483899 -0.1394237 0.033443909
0.48764434 -0.1393736 0.033364814
0.49024808 -0.13955334 0.033288807
0.49069273 -0.3386744 0.033973143
0.49190071 -0.33871993 0.033938318
0.49515262 -0.33803573 0.033853889
0.49075392 -0.33706319 0.033990052
0.4927825 -0.33673623 0.033936225
0.49521384 -0.3364245 0.033870794
0.50867921 -0.33612958 0.034492284
0.51110113 -0.33581901 0.034427106
0.51272082 -0.33547825 0.034385055
0.49326172 -0.33473742 0.033945754
0.49529031 -0.33441052 0.033891927
0.49762475 -0.33399427 0.033830456
0.50874019 -0.3345246 0.03450913
0.51095575 -0.33387753 0.034453698
0.51348752 -0.33379942 0.034382705
0.51381761 -0.33198357 0.034394354
0.51932144 -0.33090514 0.034250528
0.52133459 -0.33078012 0.034194812
0.52376413 -0.33026892 0.034131736
0.51939768 -0.32889891 0.03427159
0.5211243 -0.32899493 0.034221448
0.52393723 -0.32859513 0.034146197
0.52638662 -0.32854655 0.034505982
0.52819246 -0.32833037 0.035028916
0.52136594 -0.32642826 0.034244288
0.52391654 -0.32625648 0.03417385
0.52668774 -0.32636559 0.034205057
0.52895582 -0.32649127 0.035028514
0.53162825 -0.32565799 0.03496227
0.5240522 -0.32419509 0.034193847
0.52652675 -0.32387087 0.034127336
0.52898562 -0.32367569 0.034810133
0.53159153 -0.32361719 0.034986932
0.53440571 -0.32326582 0.034911085
0.53673148 -0.32298177 0.034848325
0.5266605 -0.32199726 0.034145217
0.52934432 -0.32083556 0.034082454
0.5317691 -0.321033 0.034411509
0.5343464 -0.3210116 0.034847904
0.53699958 -0.32119071 0.034861434
0.53939694 -0.32128105 0.034792319
0.54162478 -0.32056448 0.034737349
0.53020751 -0.31926078 0.034076154
0.53194833 -0.31875235 0.034032617
0.5344398 -0.31870988 0.034235213
0.53700644 -0.31869349 0.034690052
0.53950322 -0.3184832 0.034821678
0.54183203 -0.31846181 0.034755796
0.54447848 -0.3181265 0.034884613
0.54673398 -0.31763718 0.03562659
0.5344826 -0.31668955 0.03398452
0.53683114 -0.31600359 0.033925768
0.53931409 -0.31580091 0.03402435
0.54192632 -0.3156743 0.034585275
0.54470325 -0.31589946 0.03495403
0.54719245 -0.31605959 0.035631828
0.54906994 -0.31559876 0.035583854
0.5395329 -0.31345096 0.033878591
0.54177403 -0.31328893 0.034039155
0.54461181 -0.31356183 0.03483361
0.54717308 -0.31334466 0.035509888
0.54968631 -0.31336266 0.035592224
0.55130851 -0.31262639 0.035554677
0.54187024 -0.31096071 0.033841033
0.54472518 -0.31088483 0.034650162
0.54703361 -0.31070399 0.03478124
0.5495804 -0.3104749 0.035446752
0.55195701 -0.31054339 0.035560369
0.5423798 -0.30900431 0.03384921
0.54404038 -0.30804339 0.033938229
0.54720116 -0.30806628 0.034723636
0.54979682 -0.3080934 0.034899727
0.55227089 -0.30827692 0.035577688
0.55387807 -0.30793875 0.035535961
0.54490829 -0.30588505 0.033813506
0.54796493 -0.30639395 0.034721315
0.54998696 -0.30582973 0.034670409
0.55253005 -0.30560544 0.035055544
0.55483615 -0.30544969 0.035537563
0.5575105 -0.30464679 0.035470903
0.40575731 -0.30203769 0.033807635
0.55045331 -0.30408615 0.034677356
0.55258763 -0.30299658 0.034629349
0.55496722 -0.30276486 0.035342585
0.55765659 -0.30289796 0.035487
0.40429562 -0.30024838 0.033869866
0.40608048 -0.3006897 0.033814061
0.55324858 -0.30072254 0.034636896
0.55507183 -0.30019823 0.03468214
0.55778444 -0.30049777 0.035427779
0.56054842 -0.30021602 0.035435919
0.55558693 -0.29797548 0.034602281
0.557688 -0.2980254 0.03498669
0.56013399 -0.29763728 0.03547753
0.56245285 -0.29729751 0.03541562
0.41675687 -0.29444197 0.034583688
0.55636591 -0.29590344 0.034604147
0.55806303 -0.29527605 0.034563214
0.56049895 -0.29497316 0.035164516
0.56303734 -0.29502696 0.035425294
0.56475532 -0.29439399 0.035383821
0.41662335 -0.29260772 0.034608707
0.55886948 -0.29319596 0.034564376
0.560498 -0.29245678 0.034526691
0.56290323 -0.29269877 0.035289302
0.56517851 -0.29224554 0.035396684
0.41606867 -0.2911641 0.034641176
0.56118089 -0.29028109 0.034532472
0.56323874 -0.29003999 0.035048522
0.56573278 -0.28964636 0.035411019
0.56144899 -0.28849 0.0345456
0.56289566 -0.28729013 0.034791257
0.56502753 -0.28722754 0.035459045
0.5635199 -0.28460094 0.034698535
0.5647127 -0.2850228 0.035493501
0.56358677 -0.2831862 0.03554672
0.38584611 -0.26184535 0.033837765
0.38515261 -0.25854233 0.033895683
0.38486317 -0.24460478 0.034065217
0.38492534 -0.24296869 0.034082383
0.38498747 -0.24133259 0.034099549
0.57409495 -0.21700197 0.034346834
0.57601178 -0.21691141 0.034960445
0.57371557 -0.21441798 0.034054019
0.57586008 -0.21458416 0.034991685
0.57314658 -0.21178406 0.034254581
0.57598662 -0.21206419 0.035017256
0.5711537 -0.20889688 0.034190662
0.57325697 -0.20916535 0.034556612
0.57568854 -0.20921683 0.035142045
0.57739246 -0.20969221 0.035505012
0.57098562 -0.20644432 0.034348883
0.57307953 -0.20662372 0.034854926
0.57566053 -0.20667145 0.035088927
0.56915343 -0.2033969 0.034311116
0.57101047 -0.20420156 0.034499194
0.57367003 -0.20402737 0.035426166
0.57523143 -0.20431201 0.035728693
0.56902146 -0.20158373 0.034335852
0.57095754 -0.20159023 0.034680996
0.57338846 -0.2015958 0.035545666
0.57466233 -0.20147021 0.036177922
0.56868541 -0.19879851 0.034377631
0.57062852 -0.19890794 0.035121571
0.57290214 -0.19905846 0.035612669
0.56623423 -0.19565229 0.034483656
0.56807321 -0.19610144 0.034517184
0.5703218 -0.19618551 0.035207964
0.57258469 -0.19632266 0.035581887
0.56561226 -0.19351931 0.034525994
0.56820744 -0.19358352 0.034759395
0.57076281 -0.19371496 0.035478003
0.56399518 -0.19114791 0.034599353
0.56582624 -0.19102694 0.034798887
0.56812543 -0.19126791 0.03523105
0.57026196 -0.19131806 0.035419919
0.56351799 -0.18860419 0.034642346
0.565377 -0.18859833 0.035135351
0.56804168 -0.18867271 0.035513584
0.57000911 -0.18954736 0.035447598
0.56002092 -0.18507531 0.034282267
0.56295854 -0.18587057 0.034761336
0.56531167 -0.18596849 0.035531454
0.567559 -0.18616399 0.035556328
0.55798209 -0.18292475 0.033864826
0.56006801 -0.18291312 0.034389328
0.56304896 -0.183139 0.035026763
0.56519878 -0.18376242 0.035651144
0.55598921 -0.18018734 0.0339531
0.55780399 -0.18055119 0.034079257
0.56016213 -0.18066436 0.03464764
0.56280667 -0.18084054 0.035052545
0.55368036 -0.17727669 0.034052342
0.55536491 -0.17804606 0.033995606
0.55794913 -0.17817435 0.034305535
0.56047183 -0.17815685 0.034849755
0.56239116 -0.17838991 0.034792565
0.55342555 -0.17549221 0.034080237
0.55535221 -0.17572618 0.034022819
0.55784899 -0.17576241 0.034644123
0.56028575 -0.17600679 0.034879927
0.55064267 -0.17232169 0.03419596
0.55241185 -0.17292619 0.03413872
0.55505669 -0.17289139 0.034064021
0.55727392 -0.17339952 0.034566861
0.54772222 -0.16958965 0.034310512
0.54999125 -0.17017023 0.034239355
0.55226076 -0.17025577 0.034173917
0.55468529 -0.17049225 0.034245249
0.54528207 -0.16748083 0.034404207
0.54739612 -0.16756046 0.034343254
0.55002093 -0.16745771 0.034269903
0.55220252 -0.16765516 0.034205671
0.5426169 -0.16422057 0.034517616
0.54447556 -0.16482846 0.034457806
0.5472942 -0.16493468 0.034376536
0.54998904 -0.16526674 0.034296162
0.55169284 -0.1659072 0.034240365
0.54029274 -0.16171272 0.034612656
