# .PCD v0.7 - Point Cloud Data file format
VERSION 0.7
FIELDS x y z
SIZE 4 4 4
TYPE F F F
COUNT 1 1 1
WIDTH 903
HEIGHT 1
VIEWPOINT 0 0 0 1 0 0 0
POINTS 903
DATA ascii
0.54728365 -0.25376084 0.023348778
0.54652673 -0.25163752 0.023394793
0.52861375 -0.23507971 0.023094237
0.52661061 -0.23248114 0.02318114
0.52861917 -0.23272505 0.023121297
0.5241878 -0.22986671 0.023280134
0.52646196 -0.23007262 0.023213182
0.52175224 -0.22758825 0.023375606
0.52386385 -0.22733144 0.023318622
0.5259307 -0.22825038 0.023249328
0.52182883 -0.22557269 0.02339673
0.52302969 -0.22494516 0.023369884
0.51993024 -0.21622217 0.022558182
0.5187304 -0.21448866 0.022612289
0.5130353 -0.1978133 0.022966653
0.51227272 -0.19567423 0.023013026
0.51063389 -0.19068831 0.023117164
0.51085973 -0.18844579 0.023136662
0.51071513 -0.18590793 0.023170087
0.51019329 -0.18377794 0.023209512
0.50968701 -0.17489544 0.023326516
0.50856501 -0.17333369 0.023376429
0.51009452 -0.1730537 0.023336237
0.5089885 -0.17107049 0.023390561
0.51077807 -0.1704089 0.023347395
0.51091123 -0.16766089 0.023375366
0.51153803 -0.16504663 0.023387782
0.51263136 -0.16403268 0.023368448
0.51269537 -0.16234683 0.023386111
0.57837343 -0.27448526 0.024227567
0.57327151 -0.2720058 0.024401069
0.57577789 -0.27168444 0.024333626
0.57819498 -0.27152607 0.024266833
0.57087559 -0.26942044 0.024498969
0.57338196 -0.26909912 0.024431521
0.57588828 -0.26877773 0.024364064
0.5656175 -0.26645494 0.023682058
0.56829774 -0.2666921 0.024103453
0.5709703 -0.26692897 0.024525059
0.57347667 -0.26660767 0.024457604
0.57575178 -0.26690131 0.024389617
0.560296 -0.26374996 0.023864388
0.56321263 -0.2638599 0.023780316
0.56571251 -0.26395416 0.023708254
0.56802672 -0.26454228 0.023635756
0.57068068 -0.26497626 0.023555398
0.55497456 -0.26104498 0.024046741
0.55747443 -0.26113924 0.023974657
0.55997443 -0.26123345 0.023902595
0.5625599 -0.26151645 0.023825923
0.56494254 -0.26225555 0.023749739
0.55256969 -0.25844991 0.024145007
0.55506963 -0.25854418 0.024072945
0.55699283 -0.25917321 0.024011066
0.54849815 -0.25579205 0.024291307
0.55016482 -0.2558549 0.024243265
0.55253667 -0.25618282 0.02417214
0.55471635 -0.25686127 0.02410242
0.5479762 -0.25305933 0.024337701
0.54968315 -0.25388891 0.024279654
0.54236054 -0.25106153 0.023519732
0.5447613 -0.25125676 0.023449313
0.53941154 -0.24851279 0.023632916
0.54217708 -0.24854088 0.023554077
0.54409695 -0.24945116 0.023489058
0.53669643 -0.24582052 0.0237411
0.53920567 -0.24591514 0.023668766
0.54113615 -0.24654652 0.023606667
0.53428257 -0.24321583 0.023839742
0.53679186 -0.24331039 0.023767412
0.53872228 -0.2439418 0.023705304
0.5318687 -0.24061111 0.023938358
0.53437793 -0.2407057 0.023866028
0.53637898 -0.24094872 0.023806412
0.52955544 -0.23811492 0.024032895
0.53196412 -0.23810101 0.023964673
0.53389454 -0.23873238 0.023902556
0.5298785 -0.23567621 0.024051894
0.53121513 -0.23576851 0.024012879
0.52961385 -0.23382285 0.024080813
0.52092028 -0.22459228 0.023433845
0.51859838 -0.22208682 0.023528725
0.52111697 -0.22218177 0.023456119
0.51869416 -0.21956736 0.023555113
0.52070266 -0.21981129 0.023495268
0.51627135 -0.21695296 0.023654103
0.51854545 -0.21715884 0.023587164
0.520437 -0.21795103 0.023524314
0.51636708 -0.21443352 0.023680508
0.51801419 -0.21533664 0.023623317
0.51604307 -0.21189824 0.023718998
0.51520896 -0.20951192 0.023770249
0.51329619 -0.20674856 0.023856491
0.51494336 -0.20765167 0.0237993
0.51283222 -0.204208 0.023899019
0.5130679 -0.20169382 0.023921371
0.51107401 -0.1988553 0.024010787
0.51272798 -0.19957843 0.023955479
0.51091617 -0.19668673 0.024040325
0.51066124 -0.19391377 0.024079595
0.5107711 -0.19207567 0.024097731
0.51151168 -0.1873378 0.024131447
0.5111717 -0.18522245 0.024165526
0.50999129 -0.16688761 0.02341041
0.51101017 -0.16228327 0.023434699
0.51279145 -0.15981802 0.023412606
0.51285559 -0.15813218 0.023430258
0.51220512 -0.15304285 0.023507535
0.51263982 -0.14659086 0.024570242
0.51321989 -0.14441268 0.024245432
0.51588404 -0.13871065 0.023568694
0.51621628 -0.13631135 0.023586988
0.5189364 -0.1313491 0.023567094
0.52105922 -0.12624373 0.023565816
0.52121353 -0.12391448 0.023588352
0.52109438 -0.12099388 0.023625486
0.58067942 -0.25281888 0.028414324
0.57625937 -0.25060418 0.028565407
0.5786972 -0.25110573 0.028490404
0.58074158 -0.25118276 0.02843147
0.57674599 -0.24857451 0.028575057
0.57879043 -0.24865158 0.028516123
0.56342566 -0.244436 0.028000593
0.56547785 -0.24451339 0.027941436
0.56809217 -0.24494085 0.027862269
0.57053292 -0.24560852 0.027785262
0.57611793 -0.24573687 0.027625212
0.57858056 -0.24582969 0.027554223
0.55800521 -0.24286111 0.028172681
0.56045401 -0.24259707 0.028106213
0.56298935 -0.24293935 0.028030276
0.56554025 -0.24287105 0.027958641
0.55332083 -0.2399434 0.028339386
0.55515224 -0.24042359 0.028281853
0.55740958 -0.24050872 0.028216779
0.5602982 -0.24020647 0.028138259
0.56317127 -0.24031475 0.028055439
0.54848921 -0.23729424 0.028507173
0.55028266 -0.23769078 0.028451681
0.55264831 -0.23797435 0.028381241
0.55490059 -0.23804146 0.028205357
0.55786604 -0.23773964 0.027402079
0.54756665 -0.23561478 0.028552786
0.55013782 -0.23576529 0.028352987
0.55225849 -0.2352556 0.027756736
0.55530345 -0.2353508 0.027335692
0.55810493 -0.23545639 0.027254928
0.54746872 -0.23279677 0.028016428
0.54987049 -0.23283471 0.027519017
0.55234241 -0.23292787 0.02744776
0.54256433 -0.2296702 0.027763009
0.544936 -0.22998889 0.02769199
0.54749256 -0.23026872 0.027616173
0.54996449 -0.23036191 0.027544916
0.54020202 -0.22669208 0.027864486
0.54192555 -0.22747934 0.027806457
0.54470259 -0.22768719 0.027725214
0.54758644 -0.22779591 0.027642081
0.53753895 -0.22439051 0.027966687
0.53954762 -0.22491334 0.027903624
0.54191267 -0.2251057 0.027834257
0.5443846 -0.22519888 0.027763
0.53730261 -0.22233763 0.027997127
0.53953469 -0.22253969 0.027931422
0.54213214 -0.22249116 0.027524747
0.53552443 -0.21949944 0.028080404
0.53715676 -0.21997371 0.028028578
0.53952175 -0.22016606 0.027959209
0.54231322 -0.21963859 0.026885603
0.53464144 -0.21740253 0.028129702
0.53680694 -0.21733409 0.028069012
0.53945053 -0.21707417 0.027139425
0.53214699 -0.21428186 0.028236577
0.53406435 -0.21449172 0.02817972
0.53670269 -0.21466766 0.027602557
0.53935593 -0.21463859 0.027027339
0.53006983 -0.21103933 0.028333023
0.53168643 -0.21192575 0.028276883
0.53414685 -0.21170555 0.027923729
0.53696895 -0.21206293 0.027124861
0.52941221 -0.20904265 0.028374769
0.5317961 -0.20904082 0.02830711
0.53464651 -0.20944661 0.027346089
0.5370633 -0.20958079 0.027150869
0.52777016 -0.2064127 0.028451771
0.52925646 -0.20638616 0.02840988
0.53147811 -0.20655249 0.028344885
0.53437841 -0.20691858 0.027257854
0.52704012 -0.20390885 0.028501431
0.52910012 -0.20398651 0.028442049
0.53161806 -0.20404479 0.027969707
0.53419107 -0.20420524 0.027294528
0.52654999 -0.20129609 0.028545538
0.52894366 -0.2015868 0.028474221
0.53173167 -0.20124348 0.02750974
0.5340693 -0.20118231 0.027332909
0.52663511 -0.19905882 0.028568979
0.52891254 -0.19896814 0.028394205
0.53168243 -0.19860666 0.027430445
0.52710825 -0.19668877 0.028582923
0.52918774 -0.19620417 0.02786251
0.53177667 -0.19612451 0.027456442
0.52745688 -0.19340385 0.027860649
0.5293898 -0.19354886 0.027553976
0.52700287 -0.19097318 0.027651507
0.52918619 -0.19098015 0.027589433
0.52637744 -0.18836035 0.027699452
0.52891362 -0.18864241 0.027624186
0.52636451 -0.18597776 0.027727356
0.52884561 -0.18607128 0.027655823
0.52645874 -0.18349563 0.027753353
0.52893996 -0.18358916 0.027681828
0.52655303 -0.18101349 0.027779361
0.52905005 -0.18069334 0.027712161
0.52666306 -0.17811769 0.027809694
0.52916014 -0.17779754 0.027742505
0.52687263 -0.17532918 0.027835965
0.52925444 -0.17531542 0.027768496
0.52728105 -0.17275532 0.027854115
0.52934879 -0.17283326 0.02779451
0.53183007 -0.17292683 0.027722985
0.52728635 -0.17043556 0.027880764
0.52928078 -0.17026219 0.027826136
0.53192437 -0.1704447 0.027748972
0.52705616 -0.16777547 0.027918041
0.5291239 -0.16785343 0.027858436
0.53201872 -0.16796258 0.02777499
0.53441155 -0.16796073 0.027707074
0.52713478 -0.16570705 0.027939707
0.52880466 -0.16535573 0.027896348
0.53173608 -0.16533878 0.027813315
0.53400147 -0.16482666 0.027754921
0.52898562 -0.16257557 0.027923344
0.53132504 -0.1624378 0.027858514
0.53406155 -0.16215681 0.02778407
0.52951467 -0.15974827 0.027940983
0.531506 -0.15965764 0.027885497
0.53398728 -0.15975118 0.027813971
0.52993047 -0.15752685 0.027954862
0.5316003 -0.15717551 0.027911505
0.5340817 -0.15726906 0.027839979
0.53667486 -0.15746513 0.02766403
0.53195983 -0.15497959 0.027926663
0.53417593 -0.15478694 0.027865976
0.53665721 -0.15488048 0.027794451
0.53258467 -0.15306982 0.027931005
0.53427029 -0.1523048 0.027891984
0.53675151 -0.15239836 0.027820447
0.53477812 -0.14983828 0.02790606
0.53686154 -0.14950253 0.027850792
0.53527021 -0.14778543 0.02791582
0.53697157 -0.14660674 0.027881116
0.53945285 -0.14670028 0.02780959
0.53755587 -0.14430878 0.027891094
0.5395472 -0.14421816 0.027835608
0.53795588 -0.14250103 0.027900606
0.53974098 -0.14184335 0.027857531
0.54212284 -0.14182955 0.02779007
0.54053152 -0.14011244 0.027855098
0.54221708 -0.13934743 0.02781608
0.54478735 -0.13927862 0.0277439
0.54292387 -0.13709554 0.027822025
0.54473758 -0.13642953 0.027778236
0.54730541 -0.13622504 0.027707696
0.54571408 -0.13450791 0.027772725
0.54766494 -0.13402909 0.027722856
0.54988098 -0.13383645 0.027662158
0.55046529 -0.13153851 0.027672136
0.56605476 -0.25780827 0.030772835
0.56822121 -0.25854033 0.030702868
0.57089317 -0.25880367 0.030623963
0.5725162 -0.25886488 0.030577183
0.57988179 -0.25751659 0.030383646
0.55843771 -0.25508216 0.031020597
0.56061643 -0.2554895 0.030954033
0.56287026 -0.25606227 0.030883422
0.56530493 -0.25615403 0.03081324
0.56822461 -0.25621068 0.030562947
0.57098573 -0.25636822 0.030649483
0.57350534 -0.25616753 0.030580265
0.57576102 -0.25596756 0.030518528
0.57830501 -0.25623766 0.030443177
0.5799281 -0.25629884 0.030396387
0.55849934 -0.2534585 0.031037604
0.56052822 -0.25353497 0.030979119
0.56296283 -0.25362676 0.030908942
0.56565934 -0.25354537 0.030277498
0.56831145 -0.25350013 0.029758057
0.57075536 -0.25359225 0.029687604
0.5731014 -0.25357866 0.029621154
0.57576853 -0.25354809 0.029545784
0.57838064 -0.2539539 0.02946694
0.58051574 -0.25436828 0.029401541
0.55211133 -0.25044107 0.030253351
0.55578238 -0.25010413 0.0311535
0.55798709 -0.2508986 0.031081732
0.56032759 -0.25100327 0.030763958
0.56275022 -0.25078195 0.030072425
0.56543916 -0.25101772 0.029868297
0.56823575 -0.25087899 0.02929027
0.57062918 -0.25091305 0.029055178
0.57307935 -0.25100544 0.028984547
0.57527268 -0.25150502 0.029183293
0.55264258 -0.24719667 0.030275762
0.55558228 -0.2483539 0.03084592
0.55771184 -0.24835709 0.030563096
0.56030118 -0.24835978 0.029919829
0.56295508 -0.24807584 0.029272497
0.56570625 -0.24815829 0.028893296
0.56815958 -0.24825078 0.028822578
0.57061285 -0.24834326 0.028751854
0.57306606 -0.24843577 0.028681133
0.5751105 -0.24851285 0.028622204
0.54418164 -0.24442941 0.030547947
0.55041701 -0.24493651 0.030365059
0.55229717 -0.24555145 0.030304572
0.55497903 -0.24545354 0.029673751
0.55762196 -0.24539587 0.029154738
0.56007522 -0.24548835 0.029084018
0.56292188 -0.24600528 0.028997228
0.56578398 -0.2461132 0.02891472
0.5678128 -0.24659929 0.028851494
0.54258329 -0.24355304 0.030603468
0.54456067 -0.24250543 0.030559428
0.54762745 -0.24269392 0.030470179
0.54984045 -0.24311253 0.030402511
0.5525648 -0.24273816 0.029529119
0.55497903 -0.24311166 0.029256171
0.55686635 -0.24372895 0.029195458
0.54273814 -0.23947838 0.030646145
0.54474384 -0.24037011 0.030578902
0.54752904 -0.24043007 0.030070364
0.54973698 -0.24008089 0.029440019
0.55190194 -0.24075647 0.029370736
0.54226732 -0.23755638 0.030681714
0.54468888 -0.23766276 0.029944764
0.54708868 -0.23811737 0.029537898
0.54887527 -0.2385124 0.029482603
0.53531027 -0.23457377 0.030913711
0.5371905 -0.23518872 0.030853221
0.53963441 -0.23528086 0.030782769
0.542184 -0.23501885 0.030013088
0.54458356 -0.2353849 0.029390477
0.54612029 -0.23473795 0.028603971
0.53443205 -0.23263644 0.030961027
0.53654861 -0.23262596 0.030678736
0.53932601 -0.23276027 0.029653439
0.54209393 -0.23253031 0.028743804
0.54464746 -0.23293497 0.02866663
0.54616708 -0.23350622 0.02861689
0.53458369 -0.23012458 0.030818993
0.53681368 -0.22996791 0.029923785
0.53970933 -0.23038459 0.028836301
0.54194331 -0.23108555 0.028764777
0.54378247 -0.23136048 0.028709382
0.52944791 -0.22731875 0.031163977
0.53199351 -0.22703579 0.031094976
0.53418601 -0.22784363 0.030737545
0.53746659 -0.22759809 0.028932175
0.53933388 -0.22790346 0.028875632
0.52982295 -0.22511774 0.031178763
0.53167099 -0.22524197 0.030981937
0.53420669 -0.22484195 0.029556803
0.53626138 -0.22532062 0.028992712
0.53030765 -0.22309577 0.031188369
0.53171337 -0.22218324 0.03015854
0.5342347 -0.22216308 0.02918678
0.53588587 -0.22283947 0.029032052
0.52939814 -0.21948226 0.030255482
0.53175724 -0.21959405 0.029631402
0.53387022 -0.21963863 0.029126246
0.5243175 -0.21669653 0.030431911
0.52703816 -0.21693565 0.030351901
0.52931881 -0.21714094 0.029951297
0.53189343 -0.21703543 0.029212449
0.52425891 -0.21464629 0.030457273
0.52630329 -0.21472336 0.030398339
0.5289166 -0.21425062 0.029329147
0.53070468 -0.21496904 0.029270073
0.52164191 -0.21168038 0.030565843
0.52367073 -0.21216647 0.030502627
0.52633607 -0.21194774 0.02976251
0.52861971 -0.21214934 0.029361853
0.52162898 -0.20932466 0.030593421
0.52378178 -0.20940301 0.030231262
0.52653474 -0.20932963 0.029453635
0.52814525 -0.21021268 0.029397696
0.52134937 -0.20664233 0.030632365
0.52407432 -0.20666231 0.029887799
0.5263893 -0.20697464 0.029484974
0.5215283 -0.20389353 0.03065904
0.52432764 -0.20427288 0.02969978
0.52590108 -0.20437175 0.029528907
0.51995498 -0.20219578 0.030723333
0.52113307 -0.20143768 0.03009836
0.52398551 -0.20168304 0.029614361
0.51899886 -0.19861412 0.030591775
0.52124906 -0.19896336 0.029723478
0.52355659 -0.19889973 0.02932521
0.52559578 -0.19848898 0.028605074
0.51894593 -0.19642323 0.030818677
0.52119964 -0.19613567 0.029757559
0.52413303 -0.19626705 0.028672267
0.52600992 -0.1962759 0.028618878
0.5194481 -0.19398451 0.030832598
0.52128333 -0.19368948 0.030116936
0.52412009 -0.1938934 0.028700063
0.5260914 -0.19413282 0.028641332
0.51921308 -0.19093286 0.030874537
0.52136868 -0.19114637 0.029810414
0.52430278 -0.19125885 0.028725322
0.52584636 -0.19189486 0.028674155
0.51888973 -0.18814778 0.030772975
0.52115834 -0.18856867 0.029846167
0.52349973 -0.18850464 0.028779946
0.51678127 -0.18514566 0.03101044
0.51874053 -0.18591812 0.030802965
0.52098542 -0.18592018 0.029756617
0.5236094 -0.18561968 0.028810166
0.51690209 -0.18340257 0.031027162
0.51845485 -0.18318023 0.030985644
0.52103496 -0.18343547 0.029575488
0.52370334 -0.18314689 0.028836071
0.51647776 -0.18056026 0.03107205
0.51837456 -0.18070374 0.030794216
0.52104717 -0.18070273 0.029667348
0.52379733 -0.18067411 0.02886197
0.51635885 -0.17830293 0.031101501
0.51850015 -0.17818184 0.03070862
0.52124316 -0.17795487 0.029632904
0.52389127 -0.1782013 0.028887877
0.51656771 -0.17639931 0.031117579
0.51856059 -0.17541647 0.030905612
0.52133691 -0.17548829 0.029658742
0.52398527 -0.1757285 0.028913787
0.52566457 -0.17496638 0.028874904
0.51885003 -0.1727794 0.031094598
0.52144676 -0.17305791 0.029917151
0.52416557 -0.17295879 0.028940672
0.52574283 -0.17290571 0.028896503
0.51912302 -0.170215 0.03111648
0.5212996 -0.17044587 0.030251652
0.52411592 -0.1701204 0.028974881
0.5258525 -0.17002077 0.02892673
0.51962513 -0.16777627 0.031130413
0.52153707 -0.16780731 0.030375447
0.52429849 -0.16748588 0.029000133
0.52594644 -0.167548 0.028952628
0.51971835 -0.16532214 0.031156113
0.52155793 -0.16509721 0.030406171
0.52401108 -0.16505975 0.029286452
0.52604938 -0.1648397 0.028980996
0.52146667 -0.16245121 0.030866802
0.52393651 -0.16240518 0.029783746
0.52613437 -0.16260241 0.029004434
0.52781367 -0.16184026 0.028965563
0.52198035 -0.15967292 0.031157171
0.52389228 -0.15989016 0.030099917
0.52622837 -0.16012961 0.029030344
0.52809018 -0.15999343 0.028979056
0.52214921 -0.15738547 0.031178808
0.52405411 -0.15741269 0.030249011
0.52644652 -0.15722068 0.029257858
0.52865136 -0.15716679 0.028995786
0.52256024 -0.15518908 0.031192511
0.52398473 -0.15477034 0.030728145
0.52628386 -0.15474363 0.029891392
0.52891952 -0.15445295 0.029019535
0.5309034 -0.15436265 0.028964246
0.52430457 -0.15238759 0.031175366
0.52629763 -0.15207537 0.03022198
0.52883244 -0.15192989 0.02941497
0.53148544 -0.15207332 0.028974175
0.53316474 -0.1513112 0.028935313
0.52477562 -0.15076691 0.031180725
0.52623594 -0.14913301 0.030857991
0.52895439 -0.14941318 0.02987716
0.53157949 -0.14960054 0.029000074
0.53344125 -0.14946437 0.028948791
0.52674186 -0.14674497 0.031171361
0.52887386 -0.14691043 0.030219624
0.53153074 -0.14710239 0.029230425
0.53415579 -0.14694619 0.028957602
0.53585595 -0.14563455 0.028924495
0.52705318 -0.14470866 0.031186059
0.52891666 -0.1443342 0.030682724
0.53164887 -0.14459211 0.029692655
0.5341844 -0.14422081 0.028988285
0.53625447 -0.14383359 0.028933983
0.52905971 -0.14219011 0.031158185
0.53146034 -0.14192185 0.030426158
0.53417927 -0.14146638 0.029603876
0.5368365 -0.14154428 0.028943909
0.53878003 -0.14106727 0.028894236
0.53151691 -0.13930628 0.031121746
0.53399909 -0.13887806 0.030255854
0.53681916 -0.13897802 0.029074106
0.53940248 -0.13916469 0.028898558
0.54108173 -0.13840254 0.028859675
0.53228617 -0.13630418 0.031134596
0.53408039 -0.13639955 0.030582324
0.53686315 -0.13656241 0.029500965
0.53949642 -0.13669188 0.028924465
0.54173744 -0.13665846 0.028861228
0.54450297 -0.13522975 0.028799206
0.53237939 -0.13385004 0.031160304
0.53416049 -0.1339266 0.03090876
0.53690517 -0.13415387 0.029927794
0.53951508 -0.13399749 0.029205183
0.54207802 -0.13390015 0.028883427
0.54447687 -0.13374296 0.028817132
0.54677331 -0.13338929 0.028756017
0.54871678 -0.13291228 0.028706342
0.53244162 -0.13221397 0.031177431
0.53489488 -0.13230646 0.03110671
0.53669477 -0.1316392 0.030646479
0.53931516 -0.13124238 0.030146984
0.54201609 -0.13098964 0.029419059
0.54465955 -0.13110842 0.02884239
0.54713148 -0.13120161 0.028771132
0.54933923 -0.13100968 0.028710673
0.53726029 -0.12932357 0.031074032
0.53922862 -0.1284547 0.030755339
0.54193711 -0.12849957 0.029950311
0.54460096 -0.1286242 0.029072847
0.54722548 -0.12872882 0.02879703
0.5496974 -0.12882203 0.028725773
0.55168122 -0.12873173 0.028670495
0.53921235 -0.12591915 0.030772099
0.54203069 -0.12603609 0.02997612
0.54473048 -0.12615158 0.029231144
0.54731941 -0.12625603 0.028822938
0.5497914 -0.12634921 0.028751681
0.54212439 -0.12357264 0.030001929
0.5448243 -0.12368189 0.02925702
0.54741341 -0.12378323 0.028848847
0.54989159 -0.12371157 0.028779317
0.54509449 -0.12121885 0.029069379
0.54750741 -0.12131042 0.028874755
0.54958296 -0.12097596 0.028819686
0.57801557 -0.26602834 0.033339679
0.57611668 -0.26314402 0.033426911
0.57777703 -0.2638495 0.03337162
0.57195747 -0.26077315 0.031571448
0.57365745 -0.26112732 0.03214439
0.57572103 -0.26130971 0.033004582
0.57804418 -0.26145667 0.032891449
0.56154007 -0.25795078 0.03189984
0.57365119 -0.25881234 0.031546023
0.57604468 -0.25870246 0.031879533
0.57836753 -0.25867364 0.031699572
0.55202752 -0.25602248 0.033192664
0.5548622 -0.25588807 0.032780241
0.55678165 -0.2553418 0.032065064
0.55298591 -0.25394401 0.032689244
0.55513054 -0.25373206 0.032352887
0.55684316 -0.25372437 0.032082021
0.55091316 -0.24992056 0.031293869
0.55306697 -0.25063649 0.031599622
0.55519426 -0.25146398 0.032154951
0.55690461 -0.25210693 0.032098949
0.54790944 -0.24769354 0.031404883
0.55016333 -0.24826632 0.031334274
0.55270505 -0.24859442 0.031258326
0.55422097 -0.24841928 0.031217307
0.53766125 -0.24499302 0.033727992
0.53821856 -0.2444762 0.033718139
0.54298282 -0.24474367 0.031578839
0.54480696 -0.24562542 0.031516861
0.54700971 -0.24570847 0.031453367
0.54916352 -0.24606067 0.031388152
0.53747445 -0.24283464 0.033758234
0.53944492 -0.24294506 0.032700539
0.54184264 -0.24266821 0.031635195
0.54491758 -0.24373263 0.031535607
0.54666567 -0.24406952 0.031482086
0.53710723 -0.24042653 0.03279601
0.53980893 -0.24064207 0.031938672
0.54183245 -0.24079795 0.0316571
0.53556871 -0.23834461 0.032863736
0.53754884 -0.2380349 0.031810641
0.53946424 -0.23818102 0.031754572
0.54157573 -0.23899972 0.031685174
0.53517592 -0.23631948 0.031897843
0.53842211 -0.23644185 0.031804264
0.53288019 -0.23257449 0.032006279
0.53205162 -0.2294268 0.032066185
0.531021 -0.22803298 0.03211154
0.52508867 -0.22374439 0.03232953
0.52696174 -0.22435699 0.032269273
0.52849162 -0.22521229 0.031548966
0.52511954 -0.22293256 0.032338023
0.52630329 -0.22222325 0.031712316
0.52879959 -0.22252883 0.031237729
0.52169305 -0.22000432 0.033469606
0.52471352 -0.2200285 0.031382632
0.52628005 -0.2197908 0.031340901
0.52822298 -0.2207049 0.031275172
0.52178526 -0.21757822 0.033495028
0.52480638 -0.2175837 0.031408239
0.52562106 -0.21761441 0.031384766
0.52015078 -0.21128742 0.031613171
0.52019721 -0.21006504 0.031625986
0.51708525 -0.20633276 0.033758402
0.51881129 -0.20599641 0.03237934
0.51660264 -0.2048298 0.033789471
0.51865613 -0.20414183 0.032238416
0.51887763 -0.20185427 0.03175832
0.51468349 -0.19814953 0.032920688
0.51681626 -0.19898155 0.032350279
0.51740319 -0.19771816 0.031847984
0.51474518 -0.19652587 0.032937694
0.51617312 -0.19637647 0.032898888
0.51767653 -0.19589224 0.031861313
0.51568377 -0.19390443 0.032841299
0.51796538 -0.19365884 0.031878918
0.51605803 -0.19129875 0.032246191
0.51765096 -0.19119871 0.031916272
0.51652187 -0.18870783 0.031977106
0.51771289 -0.18956883 0.031933337
0.51355404 -0.18509917 0.033103555
0.51620126 -0.18641065 0.032012761
0.51370734 -0.1832823 0.032786697
0.5155012 -0.18336469 0.03206782
0.51390278 -0.1808766 0.032856584
0.51520228 -0.18049707 0.032109454
0.5138163 -0.17819867 0.033175841
0.51488781 -0.17803691 0.0321468
0.51419705 -0.17474645 0.032204419
0.51569742 -0.17551711 0.032152936
0.51389772 -0.17274001 0.032436214
0.51578546 -0.17307428 0.032278709
0.51754856 -0.17242451 0.032136101
0.5137918 -0.17061616 0.033121224
0.51594865 -0.17050377 0.032658495
0.5178529 -0.16978365 0.032157987
0.51378071 -0.1684415 0.033289596
0.51591003 -0.16781965 0.033236325
0.51814175 -0.16755027 0.032175589
0.51654935 -0.16509067 0.033249706
0.51824051 -0.16504773 0.032576893
0.51682162 -0.16327173 0.033262998
0.51860607 -0.16259891 0.032719858
0.51876056 -0.15998399 0.032845739
0.52047253 -0.15988518 0.032197982
0.51911861 -0.15717512 0.033143159
0.52097309 -0.15674655 0.03201995
0.51918983 -0.15441816 0.03329806
0.52112013 -0.15447481 0.032492239
0.52260691 -0.15396203 0.031205356
0.51947761 -0.15219329 0.033315599
0.5214473 -0.15211694 0.032760311
0.52322614 -0.15182798 0.032212898
0.51974988 -0.15037435 0.033328891
0.52164149 -0.14974456 0.033060126
0.52393866 -0.14947934 0.032076888
0.52209735 -0.14741415 0.033296444
0.52399802 -0.14683419 0.032633495
0.52590239 -0.14580812 0.032206476
0.5244258 -0.14416713 0.033017728
0.52629638 -0.14402756 0.032215875
0.52492762 -0.14243968 0.033273578
0.52672726 -0.14172715 0.032730456
0.52879339 -0.14129253 0.032176573
0.52727509 -0.1394795 0.033241123
0.52927715 -0.13915107 0.032387681
0.53109998 -0.13784306 0.032150954
0.52930909 -0.13649391 0.032672152
0.53116196 -0.13621318 0.03216802
0.5291236 -0.13448006 0.03291291
0.53141683 -0.13390003 0.032521013
0.53339779 -0.13340968 0.033137426
0.53269428 -0.1305377 0.033190578
0.53425163 -0.13121758 0.032638263
0.53459567 -0.12882593 0.032756183
0.53662592 -0.1283942 0.032103237
0.53405035 -0.12693039 0.033193767
0.53643698 -0.12621079 0.032133833
0.57369196 -0.26883012 0.035430998
0.57578659 -0.26903242 0.034368724
0.57325536 -0.26666161 0.034912638
0.57587773 -0.26663429 0.034393847
0.5735153 -0.26417598 0.034600489
0.57579082 -0.26470974 0.034418553
0.5507009 -0.25852728 0.036202788
0.55259275 -0.25815141 0.035152972
0.55422366 -0.25789863 0.034109086
0.55103004 -0.25737637 0.034205794
0.5520938 -0.25580922 0.034193717
0.55076212 -0.25367948 0.035256624
0.55198473 -0.25339416 0.034224719
0.53544319 -0.24473414 0.03479442
0.53624541 -0.24476437 0.034771293
0.5386368 -0.24525635 0.034697711
0.53508842 -0.24284062 0.034397602
0.53630638 -0.2431594 0.034788102
0.53869784 -0.24365136 0.03471452
0.53470904 -0.24089365 0.034692887
0.53619361 -0.24015333 0.034325808
0.52899474 -0.23684834 0.036069095
0.53424454 -0.23846789 0.034400612
0.53567195 -0.23871544 0.034857467
0.52905554 -0.23524958 0.036085844
0.53148228 -0.23494236 0.034353048
0.52901059 -0.23284373 0.035829071
0.53141153 -0.23260227 0.034048609
0.52221537 -0.22957894 0.035845339
0.52760923 -0.23119241 0.036173791
0.52886409 -0.2304178 0.034813147
0.53093386 -0.23102455 0.034080405
0.5223431 -0.2275054 0.03569892
0.52478361 -0.22662443 0.034305856
0.52598989 -0.22742561 0.034548193
0.52163738 -0.22473881 0.03498866
0.52340871 -0.22483647 0.034699038
0.52523226 -0.2254312 0.034306914
0.52168381 -0.2224098 0.034842741
0.52297676 -0.22254418 0.034904525
0.52140886 -0.21942608 0.035485309
0.52270526 -0.22054647 0.035435557
0.52124894 -0.21692643 0.034768388
0.51410967 -0.2141951 0.035752982
0.51999295 -0.21474585 0.034579128
0.52104634 -0.2153234 0.034542549
0.51339889 -0.21175738 0.035801321
0.51349044 -0.20934992 0.035826541
0.51511008 -0.20900916 0.035784513
0.51200795 -0.20607947 0.035906434
0.51364362 -0.20683201 0.035628974
0.51546717 -0.20650768 0.034802806
0.51208425 -0.20407324 0.035927445
0.51388806 -0.20414202 0.035097305
0.51643562 -0.20355038 0.034009092
0.51217568 -0.20166576 0.035952657
0.51378113 -0.20143333 0.03515942
0.51601964 -0.2021682 0.034726098
0.51331145 -0.19956896 0.034944192
0.51541066 -0.19891331 0.033891678
0.50919557 -0.19552609 0.036108226
0.51527768 -0.19708608 0.033916563
0.5100283 -0.19475384 0.036093503
0.51332736 -0.19350627 0.034263417
0.51370847 -0.19118762 0.034362767
0.51344991 -0.18859981 0.03456676
0.51480734 -0.18815976 0.03403306
0.51292795 -0.18635608 0.034607507
0.50885081 -0.18345846 0.036257446
0.51005411 -0.18350385 0.036222756
0.50892705 -0.18145224 0.036278456
0.51089025 -0.1807825 0.035530128
0.51265866 -0.1807899 0.034179222
0.51115721 -0.17881952 0.035745338
0.51293051 -0.17857449 0.034530599
0.51362073 -0.17677683 0.034198284
0.51381552 -0.16738966 0.034301214
0.51341182 -0.1651873 0.034782786
0.51522785 -0.16492072 0.034289647
0.51360351 -0.16250022 0.035364218
0.51601738 -0.16240518 0.034296304
0.51378709 -0.15976772 0.035390589
0.51586539 -0.15971003 0.034776416
0.51753056 -0.15910706 0.034291446
0.51371074 -0.15722932 0.035422072
0.51585078 -0.15736659 0.034859486
0.51759201 -0.15748963 0.034308393
0.51380259 -0.1548125 0.035447404
0.51607984 -0.15480965 0.034682438
0.5176996 -0.15465914 0.034338042
0.51389438 -0.15239568 0.035472717
0.51618415 -0.15192942 0.034412608
0.51821136 -0.15184389 0.034356039
0.51405257 -0.1497509 0.03549879
0.5161798 -0.14924872 0.034543749
0.51870781 -0.14943297 0.034369808
0.52034003 -0.14908959 0.034327433
0.51448077 -0.14757727 0.035511732
0.51628739 -0.14686564 0.035104867
0.51866895 -0.14696592 0.034899659
0.52089626 -0.14687461 0.034462288
0.51661652 -0.14443074 0.035487458
0.51862985 -0.14450665 0.035429422
0.52130157 -0.14443268 0.034937557
0.52317488 -0.14372984 0.034308881
0.51709574 -0.14243191 0.035496965
0.51863557 -0.14199695 0.035458267
0.52108389 -0.14166552 0.035392579
0.52366233 -0.14157148 0.034774739
0.52551329 -0.14078097 0.034276545
0.51881355 -0.13967305 0.035480052
0.52151835 -0.13923718 0.035408318
0.52367657 -0.13905074 0.035349187
0.5260517 -0.13897416 0.03440721
0.52404207 -0.13676789 0.036183748
0.52647078 -0.13673553 0.035373554
0.52935582 -0.13549097 0.035562564
0.52469397 -0.13439071 0.036374606
0.52657616 -0.13378431 0.036328167
0.52942699 -0.13361911 0.035248678
0.53147197 -0.13310936 0.034196019
0.52661335 -0.13116084 0.036357418
0.5291205 -0.13107179 0.03542975
0.53136694 -0.13117956 0.034471434
0.52685541 -0.12895386 0.03637607
0.52882236 -0.12865806 0.035948463
0.53153062 -0.12885912 0.034576967
0.52706027 -0.12708643 0.036391824
0.52977252 -0.1271781 0.035313308
0.53159195 -0.12724377 0.034593891
0.56843007 -0.2664164 0.03760922
0.57000965 -0.26647595 0.037563685
0.56007802 -0.26377037 0.037448142
0.56299174 -0.26383784 0.03779342
0.56545478 -0.26394075 0.03802244
0.56796175 -0.26412424 0.03798249
0.57001472 -0.26426086 0.03758914
0.55544603 -0.26125231 0.037237141
0.55770463 -0.26116225 0.037640948
0.56015182 -0.26120397 0.037404243
0.56258446 -0.26154783 0.037831444
0.56502622 -0.26233217 0.037753046
0.56818533 -0.26245126 0.037661999
0.55532086 -0.2584857 0.037072569
0.55744874 -0.25888267 0.037293412
0.5606854 -0.25958648 0.037241023
0.56195718 -0.25984293 0.037868947
0.54522985 -0.25361234 0.0370402
0.54701078 -0.25329313 0.037368499
0.53963906 -0.25064653 0.037608378
0.54186946 -0.25100577 0.036762774
0.54502475 -0.25137919 0.03684672
0.54664952 -0.25160584 0.037398256
0.5374462 -0.24828024 0.037697971
0.53942841 -0.24835502 0.037640829
0.54178482 -0.24885665 0.037234645
0.53236675 -0.24454588 0.036884874
0.53909224 -0.24675371 0.037668884
0.52968043 -0.24244319 0.037318934
0.53136086 -0.2432031 0.037707087
0.52720976 -0.23975918 0.037586823
0.5294373 -0.24034871 0.037016544
0.53141874 -0.24047542 0.037875917
0.52634412 -0.23783985 0.037133358
0.52914941 -0.23831111 0.037048262
0.53139204 -0.23782542 0.037990659
0.5241667 -0.23526658 0.037391659
0.52633166 -0.23554683 0.037160218
0.5224576 -0.23260984 0.037304133
0.52404958 -0.23266983 0.037258238
0.52636105 -0.23286572 0.037190344
0.52256352 -0.22982287 0.037333339
0.52392375 -0.22998807 0.037292808
0.52599263 -0.23048377 0.037228335
0.51928043 -0.22738305 0.036704399
0.52289945 -0.22797491 0.037345141
0.51882297 -0.22474287 0.036497772
0.51661062 -0.22215593 0.037590921
0.51896089 -0.22218589 0.036623441
0.51616937 -0.21978508 0.037630856
0.51847643 -0.21952899 0.037193134
0.52001309 -0.22049919 0.036513031
0.51426148 -0.21754871 0.037710875
0.51579803 -0.2169687 0.037673946
0.51836097 -0.2170155 0.037267148
0.5143699 -0.21460208 0.036991484
0.51597452 -0.21442366 0.037698328
0.51775789 -0.21469024 0.037644625
0.51155716 -0.21137461 0.036858529
0.5139342 -0.21199791 0.036783833
0.5161612 -0.21187432 0.037389006
0.51795 -0.21161561 0.036674231
0.5116331 -0.20937616 0.036879465
0.51615751 -0.20966025 0.037319418
0.51802593 -0.20961715 0.036695167
0.51170903 -0.2073777 0.036900401
0.51000202 -0.19372132 0.037706934
0.51020992 -0.19114733 0.037845116
0.50882697 -0.18845667 0.037200857
0.5101769 -0.18868788 0.038160324
0.50891817 -0.18605852 0.037225977
0.51049274 -0.18597853 0.037849162
0.50913078 -0.18046285 0.037284583
0.50982881 -0.17788747 0.037294522
0.51206559 -0.16228318 0.036410838
0.51214182 -0.16027693 0.036431868
0.51220286 -0.15867196 0.036448687
0.51226383 -0.15706696 0.036465496
0.51235533 -0.15465949 0.036490709
0.51243156 -0.15265326 0.036511719
0.51929146 -0.14125909 0.036448628
0.52052522 -0.14050196 0.036422342
0.51938295 -0.1388516 0.03647384
0.52099603 -0.13868281 0.03642999
0.51947445 -0.13644414 0.036499064
0.52107882 -0.13650462 0.036452815
0.52269852 -0.13616386 0.036410779
0.52126682 -0.13420123 0.036474101
0.5233565 -0.13394994 0.036417671
0.52185589 -0.13191298 0.036483809
0.52361494 -0.13126698 0.036441326
0.52533388 -0.1302359 0.036404431
0.52426565 -0.12874909 0.036451947
0.52560306 -0.12843786 0.036417581
0.52585697 -0.12704107 0.036426514
