# .PCD v0.7 - Point Cloud Data file format
VERSION 0.7
FIELDS x y z
SIZE 4 4 4
TYPE F F F
COUNT 1 1 1
WIDTH 1400
HEIGHT 1
VIEWPOINT 0 0 0 1 0 0 0
POINTS 1400
DATA ascii
0.38417792 0.053530674 0.035498947
0.38596028 0.053382356 0.0354467
0.38834095 0.053475756 0.035380289
0.39114946 0.053400204 0.036300249
0.39411882 0.053423524 0.03621633
0.39655945 0.053736683 0.03615075
0.39898476 0.053645484 0.036080942
0.40949437 0.053250283 0.035778426
0.41191971 0.053159084 0.035708614
0.4138661 0.053247869 0.035654463
0.4233433 0.05339488 0.03638795
0.42495394 0.053334314 0.036341593
0.42761308 0.053580072 0.036269035
0.43021911 0.053943079 0.036199331
0.34447381 0.055978063 0.035652317
0.34732512 0.055870846 0.035570238
0.35335463 0.055096228 0.036390856
0.35493895 0.055960502 0.036355902
0.35989314 0.056069832 0.036216706
0.36273357 0.055963024 0.036134951
0.36557394 0.055856213 0.036053188
0.36800861 0.055764668 0.035983112
0.37848416 0.056082107 0.035689779
0.38423949 0.055154327 0.035515904
0.38615361 0.055624336 0.035467073
0.38837546 0.055672865 0.03565475
0.39127967 0.055741847 0.036323547
0.39398414 0.055973887 0.036249552
0.39665139 0.056162834 0.036176112
0.39907673 0.056071632 0.036106303
0.40150201 0.055980437 0.036036488
0.40958637 0.055676434 0.035803787
0.41209865 0.055743933 0.035733338
0.41398376 0.055742469 0.035679881
0.42504555 0.05575113 0.036366858
0.4274615 0.055660281 0.03629731
0.43037283 0.055873506 0.036217228
0.43311405 0.055851102 0.036139257
0.34445256 0.05835297 0.03568029
0.34725791 0.058403272 0.035601344
0.34937912 0.058405124 0.035541218
0.35534367 0.058563717 0.036374431
0.35998547 0.058505312 0.036242168
0.36242008 0.058413759 0.036172088
0.36526051 0.058306951 0.036090329
0.3681882 0.058359455 0.036007933
0.37543559 0.058737319 0.03580682
0.37725389 0.058465701 0.03575214
0.38940614 0.057245146 0.036394
0.39099732 0.058643073 0.036364999
0.39391387 0.058695376 0.036282919
0.39674336 0.058588982 0.036201473
0.39916864 0.058497779 0.036131665
0.40159398 0.058406584 0.036061849
0.4040193 0.058315378 0.035992041
0.40969363 0.058506947 0.035833377
0.41195726 0.058421813 0.035768218
0.41372049 0.057950579 0.035712808
0.42567912 0.058282029 0.036378067
0.42756841 0.058479901 0.036326788
0.43006456 0.058569387 0.036257051
0.43293086 0.058754977 0.036177933
0.43563694 0.058579877 0.036099188
0.34180787 0.060974903 0.0357855
0.34425175 0.060883 0.035715159
0.34732956 0.060955599 0.035628732
0.34956253 0.061091352 0.035566997
0.35580951 0.060898047 0.036388151
0.3600778 0.060940787 0.036267627
0.36251241 0.060849234 0.036197547
0.36526632 0.060933296 0.036120441
0.36790478 0.061271839 0.036049541
0.37552789 0.061172798 0.035832282
0.3773616 0.061307088 0.035781838
0.39158049 0.061212722 0.036378089
0.3937602 0.061049771 0.036314417
0.39654416 0.061099704 0.036236066
0.39926064 0.060923927 0.036157027
0.40168589 0.060832731 0.036087211
0.40678287 0.061046004 0.03594517
0.40964231 0.061424397 0.035868466
0.41161227 0.061066866 0.035808496
0.42603409 0.060554478 0.036394209
0.42767525 0.061299518 0.036356263
0.43009126 0.061208673 0.036286727
0.43290985 0.061102685 0.036205586
0.43572855 0.060996693 0.036124453
0.34199849 0.063314021 0.035807069
0.3443599 0.063735276 0.035744969
0.34673402 0.063757293 0.035677921
0.34926328 0.06395895 0.035608534
0.36025509 0.063668698 0.036294051
0.36262012 0.063690633 0.036227252
0.36498281 0.063845679 0.036162056
0.36791053 0.063898198 0.036079656
0.37562022 0.063608274 0.035857737
0.37795722 0.063622013 0.035791643
0.39206135 0.063219316 0.036387593
0.39369357 0.06356287 0.036345281
0.39652303 0.063456476 0.036263835
0.3993679 0.063754439 0.036186617
0.40179324 0.063663237 0.036116805
0.40423384 0.0639764 0.036051221
0.40665916 0.063885197 0.035981409
0.40948865 0.063778795 0.035899963
0.41150975 0.063702792 0.035841793
0.42799261 0.063592598 0.036373705
0.43018284 0.063625485 0.036311988
0.43275684 0.063448012 0.036236964
0.34241593 0.066256672 0.035829149
0.34446803 0.066587552 0.035774793
0.34691203 0.066495657 0.035704438
0.3495189 0.06639763 0.035629407
0.35101616 0.067157425 0.035595715
0.36020583 0.06646426 0.036327671
0.36272782 0.066532016 0.036256954
0.36516243 0.066440471 0.036186874
0.36775634 0.066261634 0.036111277
0.37055093 0.066311747 0.036032621
0.37571251 0.066043749 0.035883199
0.37823209 0.066244632 0.035814084
0.37978566 0.066297084 0.035770647
0.39396852 0.066072121 0.036366411
0.39634702 0.06620419 0.036300503
0.39907098 0.066600136 0.036227837
0.4019005 0.066493742 0.036146395
0.40432581 0.066402547 0.036076583
0.4067511 0.066311345 0.036006771
0.40946761 0.06613557 0.035927732
0.41119751 0.066144139 0.035878778
0.42845485 0.065909036 0.036387302
0.43027446 0.066042304 0.036337249
0.43270573 0.066354267 0.036271922
0.34252405 0.069108956 0.035858974
0.34456071 0.069032371 0.035800342
0.34700468 0.068940468 0.035730001
0.34944859 0.068848573 0.035659648
0.35148525 0.068771981 0.035601035
0.36038545 0.069059052 0.036352493
0.36282015 0.068967499 0.036282416
0.36525479 0.068875954 0.036212336
0.3676894 0.068784401 0.036142256
0.3705298 0.068677597 0.036060497
0.37582025 0.068885155 0.035912905
0.37818289 0.069040194 0.035847705
0.38010389 0.069333807 0.035796627
0.39437479 0.068720415 0.036385424
0.39633343 0.069132686 0.036334649
0.39904994 0.068956919 0.036255606
0.40183383 0.069006845 0.036177255
0.40441778 0.068828695 0.036101945
0.40684307 0.068737492 0.036032133
0.4091635 0.068548992 0.03596418
0.43045041 0.068749316 0.036363471
0.34261671 0.071553759 0.035884518
0.3446534 0.071477175 0.035825908
0.34709734 0.071385279 0.035755556
0.34954131 0.071293384 0.035685211
0.35136655 0.071020722 0.035630316
0.36070532 0.071369842 0.036370073
0.36291245 0.071402982 0.036307875
0.36534709 0.071311437 0.036237795
0.3677817 0.071219876 0.036167715
0.37023175 0.071534246 0.036101881
0.37296277 0.071605757 0.036025278
0.37836257 0.071634993 0.035872526
0.38079718 0.07154344 0.03580245
0.38243568 0.071888313 0.035759971
0.39477786 0.070810914 0.036398083
0.3964254 0.071558833 0.036360011
0.39885071 0.071467638 0.036290202
0.40168026 0.071361236 0.036208753
0.40450969 0.071254842 0.036127307
0.40693507 0.071163639 0.036057498
0.40852126 0.070294119 0.036002517
0.34270939 0.073998578 0.035910085
0.34474602 0.073921993 0.03585146
0.34718999 0.07383009 0.035781115
0.36109063 0.073368445 0.03638218
0.36284551 0.073925748 0.036338855
0.36552438 0.074039347 0.036264218
0.36788943 0.074061275 0.03619742
0.37033942 0.074375629 0.036131587
0.3730664 0.074199177 0.036052242
0.37845489 0.074070469 0.035897989
0.38088951 0.073978908 0.035827909
0.38249719 0.073511973 0.035776943
0.39692155 0.073969781 0.036373738
0.40170732 0.073857315 0.036236759
0.40405422 0.074187502 0.036174033
0.40618792 0.072811469 0.036097676
0.34259069 0.076247312 0.035939373
0.34466261 0.076687306 0.035885707
0.34729806 0.076682359 0.035810929
0.34975752 0.076997936 0.035744846
0.35464543 0.076814137 0.035604149
0.35629019 0.077160329 0.035561502
0.36547515 0.076834902 0.036297839
0.36799711 0.076902665 0.036227122
0.37043172 0.076811112 0.036157046
0.37286639 0.07671956 0.036086965
0.37570679 0.076612756 0.036005206
0.37854719 0.076505952 0.035923447
0.38087654 0.076316737 0.035855226
0.39741775 0.07638073 0.036387462
0.40140593 0.076746136 0.036278609
0.40408063 0.077021047 0.036205951
0.34247196 0.078496046 0.035968661
0.34450105 0.079198748 0.035919238
0.34724638 0.079622269 0.035846289
0.34995773 0.079205528 0.035764616
0.35229415 0.079350844 0.035700053
0.35473812 0.079258949 0.035629705
0.35695377 0.079292215 0.035567276
0.36524904 0.079444952 0.03633434
0.36808944 0.079338148 0.036252584
0.37052405 0.079246596 0.036182504
0.37295869 0.079155043 0.036112428
0.37555256 0.078976199 0.036036827
0.37842301 0.079356067 0.035959829
0.38043106 0.07903666 0.035899214
0.40158254 0.079463601 0.036304932
0.40416646 0.07928545 0.036229622
0.40591463 0.079840608 0.036186457
0.34179631 0.082193889 0.036030442
0.35022473 0.082148992 0.03579098
0.35238683 0.081795655 0.035725612
0.3548308 0.081703752 0.03565526
0.35727468 0.081611849 0.035584915
0.36544922 0.08180248 0.036355846
0.36818174 0.081773624 0.036278043
0.37061635 0.081682079 0.036207967
0.37550104 0.081904888 0.036072049
0.3781462 0.082008667 0.035998251
0.37960491 0.082970038 0.035967976
0.40167448 0.081889741 0.036330294
0.40409982 0.081798546 0.036260482
0.40662178 0.081883691 0.036189962
0.34210038 0.084834777 0.036052279
0.34799889 0.084408946 0.035880134
0.34974211 0.084417589 0.035830818
0.35247949 0.084240466 0.035751164
0.35721374 0.084307268 0.035617717
0.36550865 0.084150493 0.036381233
0.36786827 0.084224351 0.03631518
0.37072408 0.084523469 0.036237668
0.37308913 0.084545404 0.03617087
0.37804335 0.084654734 0.036031675
0.37966645 0.084593691 0.035984952
0.40011892 0.083567977 0.036393732
0.40419179 0.084224693 0.036285844
0.40663233 0.084537856 0.036220264
0.40890217 0.084614478 0.036156796
0.34238899 0.0870682 0.03606984
0.34431806 0.087228827 0.036017004
0.34715143 0.087161146 0.035935894
0.34972087 0.086792491 0.035858795
0.35246584 0.087191477 0.035785578
0.35495934 0.087248385 0.035715535
0.35708365 0.08733172 0.035656273
0.3677977 0.086956322 0.036348682
0.37053949 0.087449759 0.036276635
0.3732664 0.087273322 0.036197294
0.37813568 0.087090202 0.036057133
0.38047272 0.087103948 0.035991032
0.38344148 0.087703675 0.03591378
0.38649243 0.087792195 0.0358283
0.40213811 0.08700148 0.036376081
0.40945616 0.087192588 0.03617081
0.41121674 0.088009864 0.036130324
0.34255689 0.089346953 0.036091346
0.3445183 0.089436427 0.036036775
0.34704754 0.089638077 0.035967395
0.34942165 0.089660086 0.035900339
0.3522884 0.089960337 0.035822526
0.35513964 0.089853115 0.035740457
0.35758364 0.08976122 0.035670105
0.36808372 0.089907147 0.036374595
0.37051836 0.089815609 0.036304511
0.37335873 0.089708798 0.036222752
0.3757934 0.089617245 0.036152672
0.37822798 0.089525692 0.036082596
0.38066262 0.089434139 0.036012515
0.38351837 0.089733243 0.035935
0.38617337 0.089497901 0.035857018
0.40277416 0.089542136 0.036387339
0.40440634 0.089885704 0.03634502
0.40683162 0.089794502 0.036275215
0.41197902 0.089674585 0.036127899
0.4149313 0.089894861 0.03604674
0.41656351 0.090238422 0.036004424
0.3446264 0.092288703 0.036066592
0.34699816 0.092444338 0.036001146
0.34952977 0.092512369 0.035930157
0.35213357 0.09233284 0.035854269
0.35493892 0.092383154 0.035775311
0.3576763 0.092206031 0.035695668
0.36858177 0.092327379 0.036388367
0.37036413 0.092179038 0.036336131
0.37315872 0.092229158 0.036257479
0.37588567 0.092052713 0.036178134
0.3807703 0.092275538 0.036042217
0.38322034 0.092589885 0.03597638
0.38505399 0.092724182 0.03592594
0.40467742 0.091697723 0.03635823
0.40702081 0.09211576 0.03629661
0.40934885 0.092129454 0.036230765
0.41704434 0.092245005 0.036013927
0.43849954 0.091549128 0.036398113
0.3431052 0.095202245 0.036143303
0.34473452 0.095140971 0.036096409
0.34717846 0.095049083 0.036026061
0.3496224 0.09495718 0.035955716
0.35491768 0.094758056 0.035803296
0.35776895 0.094650835 0.035721216
0.35939828 0.094589569 0.035674334
0.37029719 0.094701812 0.036367115
0.37313759 0.094595015 0.036285352
0.37587202 0.094992481 0.036212411
0.3783561 0.095049158 0.03614264
0.380878 0.095116913 0.036071923
0.38331264 0.095025375 0.036001842
0.38564965 0.095039114 0.035935745
0.40779334 0.093807682 0.036294222
0.40952548 0.094846919 0.036257084
0.41188148 0.094868772 0.036190543
0.41472635 0.095166735 0.036113326
0.41694188 0.094880939 0.03604722
0.34466729 0.097673401 0.036127508
0.34727111 0.097493887 0.03605162
0.34971508 0.097401991 0.035981268
0.35215905 0.097310089 0.035910927
0.35460302 0.097218186 0.035840575
0.35746977 0.097518437 0.035762765
0.35950637 0.097441852 0.035704136
0.37093565 0.09725225 0.03637841
0.37283954 0.097451657 0.036326736
0.37569526 0.097750761 0.036249217
0.37853575 0.097643957 0.036167461
0.38097036 0.097552404 0.036097381
0.38340497 0.097460851 0.036027301
0.38583961 0.097369298 0.035957221
0.41004243 0.097610489 0.036274292
0.41198879 0.09769927 0.036220137
0.41441405 0.097608075 0.036150321
0.41600031 0.096738547 0.036095321
0.34451249 0.10004592 0.036159251
0.34736383 0.099938691 0.036077175
0.35471117 0.10007045 0.035870396
0.35740876 0.10021385 0.035795562
0.37129334 0.09954226 0.036394686
0.37294722 0.10029305 0.036356438
0.37554106 0.10011421 0.036280837
0.37833568 0.10016432 0.036202189
0.38106263 0.099987879 0.03612284
0.38349727 0.099896327 0.036052763
0.38569567 0.099697515 0.035988148
0.41043323 0.099377498 0.036283582
0.4120501 0.099316694 0.036237042
0.41407117 0.09924069 0.036178872
0.34435767 0.10241842 0.03619099
0.35481924 0.10292275 0.035900209
0.35643309 0.10245401 0.035849065
0.37326697 0.10260384 0.03637401
0.37909532 0.10168782 0.036198214
0.38112417 0.10161152 0.036139816
0.38384986 0.10205103 0.036067601
0.38546267 0.10171939 0.036018062
0.34437582 0.10524441 0.036223058
0.34698269 0.10525768 0.036149297
0.34986416 0.10563898 0.036072008
0.35491192 0.10536756 0.035925772
0.35717535 0.10589451 0.035867669
0.35901606 0.10602932 0.035817027
0.34236205 0.10787971 0.036310535
0.34432644 0.10805068 0.036256805
0.34685808 0.1081187 0.03618582
0.3497093 0.10801148 0.036103744
0.35500458 0.10781236 0.035951324
0.35744852 0.10772046 0.035880983
0.35907784 0.10765919 0.035834074
0.37567413 0.10791385 0.036366984
0.37812418 0.10822821 0.036301147
0.3806524 0.10822347 0.036229417
0.38261843 0.10887219 0.036181152
0.34247014 0.110732 0.036340341
0.34450677 0.11065541 0.036281724
0.34695071 0.11056352 0.036211371
0.34955448 0.11038399 0.036135487
0.35509723 0.11025718 0.035976887
0.3576265 0.11045883 0.035907499
0.35918599 0.11051147 0.035863899
0.37626261 0.11057456 0.036380969
0.37821651 0.11066368 0.036326606
0.38065115 0.11057213 0.036256526
0.38259268 0.11033653 0.036198772
0.34256279 0.1131768 0.036365911
0.3445994 0.11310022 0.036307279
0.3470434 0.11300833 0.036236938
0.34948736 0.11291642 0.036166582
0.35508361 0.1132082 0.036011286
0.35757712 0.11326508 0.035941258
0.35929406 0.11336375 0.035893708
0.37667033 0.11275429 0.036394551
0.3783088 0.11309918 0.036352068
0.38074344 0.11300763 0.036281988
0.38236654 0.11294659 0.036235273
0.3428514 0.11541023 0.036383465
0.34469211 0.11554503 0.036332842
0.34713608 0.11545314 0.036262486
0.34966528 0.11565478 0.036193114
0.35203943 0.11567678 0.036126051
0.35490617 0.11597705 0.036048245
0.35775745 0.11586983 0.035966169
0.3597188 0.11595929 0.035911601
0.37862858 0.11540996 0.036369633
0.38083577 0.1154431 0.03630745
0.38293141 0.11559657 0.036249805
0.34312457 0.11723617 0.036396772
0.34487242 0.11814977 0.036357749
0.34724414 0.11830541 0.036292311
0.34961593 0.11846105 0.036226857
0.35214752 0.11852908 0.036155876
0.35475135 0.11834955 0.03607998
0.3575567 0.11839985 0.03600103
0.35988674 0.11823806 0.035933103
0.38094342 0.11828447 0.036337152
0.38330621 0.11843953 0.036271952
0.345119 0.12065875 0.036379691
0.34735224 0.12115768 0.036322121
0.34979621 0.12106579 0.03625178
0.3522402 0.12097389 0.036181428
0.35468417 0.12088198 0.036111087
0.35753545 0.12077478 0.036029011
0.35997939 0.12068287 0.035958663
0.38105112 0.12112588 0.036366854
0.38348579 0.12103433 0.036296777
0.34578472 0.12284884 0.036386073
0.34728199 0.12360863 0.036352374
0.34988892 0.1235106 0.036277335
0.35233286 0.12341869 0.03620699
0.3547768 0.12332679 0.036136638
0.35722077 0.12323488 0.036066294
0.35925743 0.12315831 0.036007661
0.38162425 0.12338068 0.036376603
0.38357809 0.12346981 0.036322236
0.3476356 0.12594162 0.036369242
0.34998158 0.12595542 0.036302894
0.3549571 0.12593153 0.036161557
0.35732889 0.12608717 0.036096107
0.35892731 0.12521097 0.036040694
0.38203195 0.1255604 0.03639017
0.38367039 0.12590529 0.036347695
0.34761482 0.12808466 0.036394536
0.34976566 0.12853737 0.03633878
0.35490778 0.12873779 0.036195308
0.35719985 0.12883179 0.036131412
0.38393429 0.12857822 0.03637103
0.38568199 0.12894608 0.036325723
0.42014295 0.1291395 0.036351413
0.42235675 0.12916423 0.036288932
0.35508573 0.13147616 0.036221832
0.35712233 0.13139957 0.036163207
0.38448679 0.13136223 0.036387466
0.38632044 0.13149652 0.036337022
0.38797432 0.13224731 0.036298782
0.42014793 0.13140695 0.036377411
0.4224602 0.13124639 0.036310006
0.42460656 0.13156323 0.036252808
0.35517839 0.13392098 0.036247391
0.35721502 0.13384439 0.036188766
0.38641277 0.13393201 0.036362484
0.38824642 0.1340663 0.036312051
0.42064407 0.13381788 0.036391139
0.42226097 0.1337571 0.036344603
0.42468628 0.13366589 0.036274787
0.35486373 0.1363811 0.03628467
0.35761705 0.13637958 0.036206599
0.36020529 0.13740438 0.036145031
0.38691089 0.13635221 0.036376268
0.38871226 0.13640063 0.036325749
0.42253602 0.13626635 0.036365733
0.42479351 0.13649641 0.036304373
0.35258773 0.13875178 0.036376525
0.35769898 0.13916221 0.036236349
0.36019725 0.13914818 0.036165364
0.36262855 0.13945553 0.036099974
0.38737816 0.13796061 0.036381543
0.38881555 0.13912606 0.036354244
0.39071667 0.14027402 0.036313564
0.42294222 0.13891463 0.036384743
0.42462119 0.13906746 0.036338907
0.352997 0.14093985 0.036390156
0.35742515 0.14187193 0.036275353
0.36037526 0.14188655 0.036191884
0.36281916 0.14179464 0.036121543
0.38938263 0.14183402 0.036369387
0.39110896 0.14204784 0.036322903
0.42415372 0.14097473 0.036374152
0.35499364 0.14442064 0.036373675
0.35720927 0.1444539 0.036311239
0.35973683 0.1441775 0.036236394
0.36206627 0.14345516 0.036162019
0.38921666 0.14358237 0.036394238
0.39116842 0.14439584 0.036348287
0.42511544 0.14498791 0.036393136
0.35546121 0.14676389 0.036387421
0.35730189 0.14689869 0.036336798
0.35890034 0.1460225 0.036281377
0.39149705 0.14656788 0.036364015
0.39375845 0.14701192 0.036305014
0.39669493 0.14790808 0.036232095
0.39995137 0.14805661 0.036141485
0.40157446 0.14799558 0.036094766
0.40319753 0.14793454 0.036048055
0.42598519 0.14657494 0.036386788
0.42744961 0.14723977 0.036352929
0.42928022 0.14807078 0.036310613
0.35739458 0.14934351 0.036362354
0.3916561 0.14897828 0.036387287
0.39391097 0.1495032 0.036329415
0.3966794 0.14964302 0.03625254
0.39920136 0.14971077 0.036181822
0.401636 0.14961922 0.036111742
0.40407065 0.14952767 0.036041662
0.40675473 0.1498913 0.03596976
0.42782184 0.14964414 0.036370095
0.43005273 0.14976272 0.036308214
0.43220168 0.15039054 0.03625454
0.35789457 0.15177302 0.036376193
0.39371046 0.15225457 0.03636682
0.39645326 0.15225305 0.03628904
0.39929366 0.15214624 0.036207285
0.4017283 0.1520547 0.036137201
0.40416294 0.15196316 0.036067124
0.40675682 0.15178432 0.035991523
0.40871373 0.15195462 0.035938006
0.42829555 0.15199515 0.036383767
0.43024194 0.15208395 0.036329612
0.43266723 0.15199275 0.036259804
0.43428409 0.15193194 0.03621326
0.3965148 0.15387671 0.036306016
0.3993552 0.1537699 0.036224246
0.40178987 0.15367834 0.036154181
0.40422449 0.1535868 0.036084097
0.40665913 0.15349525 0.03601402
0.40868795 0.15341896 0.035955608
0.42868635 0.15376218 0.036393046
0.43030322 0.15370138 0.036346525
0.43272853 0.15361018 0.036276709
0.43434539 0.15354939 0.036230177
0.35003152 0.053188726 0.036463078
0.35186523 0.053323023 0.036412634
0.38098943 0.054119702 0.036596589
0.38327661 0.053588271 0.036525618
0.41529003 0.053697709 0.036619764
0.41741592 0.053691112 0.036559407
0.420122 0.053516015 0.036480676
0.42213526 0.053440306 0.036422718
0.35012388 0.055624206 0.036488537
0.35241777 0.056107044 0.03642907
0.38110188 0.056018662 0.03661529
0.38358855 0.055945408 0.036543943
0.38559258 0.056308728 0.036491316
0.38856706 0.056466829 0.036408812
0.41518795 0.056323502 0.036652923
0.41715032 0.05596735 0.036593184
0.41992351 0.056017078 0.036515132
0.42262959 0.055841975 0.036436394
0.35059118 0.057232603 0.036493838
0.35227582 0.058795217 0.036464084
0.35432005 0.059124842 0.036409929
0.37860993 0.058622964 0.036715966
0.38094822 0.058373053 0.036646787
0.38377774 0.058266666 0.036565341
0.38628769 0.05846677 0.03649649
0.38857439 0.058601655 0.03643322
0.41308782 0.059427802 0.03674826
0.41477239 0.058658544 0.036691621
0.41708389 0.058470778 0.036623925
0.41990256 0.058364794 0.036542792
0.42272118 0.058258798 0.036461666
0.42467228 0.058669478 0.036411077
0.34628153 0.061459575 0.036664754
0.35225466 0.061161056 0.036491957
0.35454249 0.06141993 0.036430079
0.37868962 0.060725622 0.036737941
0.38063598 0.060814407 0.036683783
0.38348079 0.061112359 0.036606565
0.38623869 0.061251622 0.036529984
0.38875097 0.06131912 0.036459539
0.39036787 0.061258327 0.036412995
0.41283283 0.061212249 0.036776047
0.41475952 0.060978446 0.036718734
0.41717553 0.060887594 0.03664919
0.4198139 0.060861722 0.036574095
0.42250904 0.061171096 0.036501247
0.42507696 0.06130759 0.03643002
0.35205466 0.063681439 0.036526684
0.35489509 0.063574627 0.036444928
0.37908041 0.062492639 0.036747247
0.38081256 0.063531868 0.036710106
0.3833425 0.063871123 0.036642294
0.38884294 0.063745268 0.036484901
0.39104167 0.063778289 0.036422946
0.41283783 0.063470967 0.036801949
0.41493782 0.063553356 0.036743365
0.41728243 0.063707218 0.036678668
0.41962931 0.063728973 0.036612377
0.42253232 0.063913174 0.036532205
0.4253509 0.063807189 0.036451072
0.42697683 0.064149424 0.036408916
0.35237449 0.065992221 0.036544256
0.35474083 0.065938085 0.036476545
0.35684031 0.066651791 0.036425252
0.38125476 0.066460222 0.036731329
0.38327584 0.066384226 0.036673155
0.38610539 0.066277809 0.036591709
0.38893494 0.066171415 0.036510263
0.39136019 0.06608022 0.036440451
0.39300773 0.066828132 0.036402375
0.41248253 0.066509657 0.036847055
0.41488898 0.06632749 0.036776733
0.41738927 0.06652683 0.036708139
0.41980526 0.066435978 0.036638603
0.42222121 0.066345133 0.036569059
0.42503986 0.066239141 0.036487926
0.42738143 0.066312447 0.03642239
0.35306624 0.068927795 0.036558487
0.35468927 0.06886676 0.036511768
0.35730475 0.069256201 0.036442112
0.38142145 0.068721585 0.036752678
0.38336781 0.068810374 0.036698516
0.38595176 0.068632215 0.036623206
0.39146748 0.068910725 0.036470044
0.39336404 0.069109358 0.036418561
0.40998486 0.069763362 0.036955375
0.41184363 0.069155633 0.036895677
0.41466221 0.069049641 0.036814537
0.41748089 0.06894365 0.036733404
0.41989684 0.068852797 0.036663868
0.4223128 0.068761952 0.036594324
0.42513147 0.06865596 0.036513191
0.42796537 0.068952776 0.036436267
0.42962182 0.070100613 0.036402553
0.43763375 0.067982145 0.037151426
0.35259867 0.071906947 0.036606092
0.35479701 0.07170815 0.036541473
0.35723162 0.071616605 0.036471393
0.35918546 0.071705729 0.036417019
0.38368633 0.071112305 0.036716022
0.38590041 0.071549661 0.036658298
0.39157477 0.071741231 0.036499634
0.3939029 0.071754918 0.036433786
0.40753645 0.072544605 0.037056863
0.4095192 0.07166329 0.036990479
0.41193521 0.071572453 0.036920935
0.41475379 0.071466446 0.036839802
0.41757247 0.071360461 0.036758676
0.41998842 0.071269616 0.036689132
0.42248869 0.071468957 0.036620542
0.42483568 0.071490712 0.036554255
0.42757195 0.07166709 0.036478717
0.43861848 0.072766945 0.037178665
0.35245466 0.074235186 0.036637012
0.35488933 0.074143633 0.036566932
0.35732394 0.074052073 0.036496852
0.35966101 0.074065819 0.036430757
0.38373488 0.074222684 0.036750503
0.38600767 0.074380182 0.036687884
0.39126253 0.074182577 0.03653663
0.39409202 0.074076176 0.03645518
0.39570892 0.074015379 0.036408644
0.4052954 0.073704548 0.037133764
0.40703684 0.074257575 0.037090763
0.40961081 0.07408011 0.037015747
0.41202679 0.073989265 0.0369462
0.41444278 0.07389842 0.036876664
0.41738516 0.074018262 0.036794621
0.42009532 0.074089229 0.036718603
0.42243996 0.074243098 0.036653906
0.42494255 0.074310333 0.036583737
0.42776123 0.074204348 0.036502603
0.35211045 0.07587409 0.036665663
0.35764375 0.076362863 0.036514428
0.3599382 0.076555312 0.036451597
0.36150479 0.077146798 0.036413997
0.38207281 0.077362686 0.036833823
0.38367435 0.076897532 0.036783054
0.38609967 0.076806329 0.036713246
0.38852492 0.076715119 0.036643438
0.39135447 0.076608725 0.036561992
0.39418399 0.076502323 0.036480542
0.3963871 0.076650873 0.036419801
0.40699089 0.076525562 0.037118215
0.40970242 0.076496921 0.037041008
0.41220507 0.07656417 0.036970831
0.41454962 0.076718032 0.036906134
0.41715497 0.076713152 0.036832217
0.42004424 0.07699547 0.036753558
0.42261818 0.076818004 0.036678538
0.42503417 0.076727159 0.036609001
0.42745012 0.076636307 0.03653945
0.43836942 0.076794505 0.037232164
0.34291619 0.079878248 0.036972493
0.34372771 0.079847738 0.036949128
0.34982967 0.080024779 0.036778182
0.35830474 0.078486606 0.036520168
0.359889 0.079350874 0.036485218
0.36218116 0.079676457 0.036423989
0.38174522 0.079399675 0.036866594
0.38376629 0.079323679 0.03680842
0.38619164 0.079232484 0.036738612
0.38861692 0.079141274 0.0366688
0.3910422 0.079050072 0.036598988
0.39396483 0.079264119 0.036518596
0.39664727 0.079354674 0.036443595
0.40736938 0.078774415 0.037133407
0.40958354 0.079440281 0.037078314
0.41215622 0.079338312 0.037004203
0.41465652 0.079537645 0.036935613
0.4170725 0.0794468 0.036866069
0.41989112 0.079340816 0.036784936
0.42270976 0.079234824 0.03670381
0.42512578 0.079143971 0.036634259
0.42754173 0.079053126 0.036564723
0.43846071 0.079201989 0.037257332
0.34299311 0.081907824 0.036993712
0.34461617 0.081846796 0.036946986
0.34705085 0.081755236 0.036876913
0.34920469 0.081403248 0.036811788
0.36006629 0.0820788 0.036511641
0.36250094 0.081987247 0.036441561
0.38102877 0.081856221 0.036915228
0.38345408 0.081765018 0.03684542
0.38628355 0.081658632 0.036763974
0.3887935 0.081858724 0.036695119
0.39114952 0.081880577 0.036628578
0.3936553 0.081970409 0.036558572
0.39653271 0.08215671 0.036479145
0.39877024 0.082160927 0.036415756
0.40743914 0.080615804 0.037152648
0.40981993 0.081960499 0.037100665
0.41233218 0.082045317 0.037030414
0.41474813 0.081954472 0.036960877
0.41716409 0.081863619 0.036891334
0.41987017 0.081688516 0.0368126
0.42264336 0.081738248 0.036734544
0.42530173 0.081850983 0.036660481
0.42764857 0.081872739 0.036594197
0.42999324 0.082026601 0.036529504
0.34307003 0.083937384 0.037014917
0.34470847 0.084282272 0.036972448
0.34703785 0.084093057 0.036904227
0.35855091 0.084981225 0.036588058
0.36015865 0.084514275 0.0365371
0.36259323 0.084422722 0.036467019
0.38112068 0.084282368 0.03694059
0.38358182 0.084314413 0.036871187
0.38627005 0.084587105 0.036798116
0.38874447 0.084643573 0.036728613
0.39125678 0.084711082 0.036658168
0.39368212 0.08461988 0.036588356
0.39651164 0.084513485 0.03650691
0.39924392 0.08451198 0.036429431
0.41037992 0.083732232 0.037105203
0.41213369 0.08454638 0.03706488
0.41483971 0.084371284 0.036986142
0.4172557 0.084280431 0.036916599
0.41975832 0.08434768 0.036846422
0.42250562 0.084486395 0.036770135
0.42525283 0.08462511 0.036693849
0.42775548 0.084692359 0.036623672
0.43017149 0.084601507 0.036554128
0.43287754 0.084426425 0.03647539
0.3451758 0.085890666 0.036977738
0.34667394 0.086105324 0.036937743
0.35862789 0.087010778 0.036609281
0.36025095 0.086949743 0.036562562
0.36268556 0.086858191 0.036492482
0.38158622 0.085884601 0.03694585
0.3830598 0.08631511 0.036909055
0.38606328 0.086526111 0.036826327
0.38892347 0.087228432 0.036753342
0.39134875 0.08713723 0.036683533
0.39377409 0.087046035 0.036613718
0.39635798 0.086867884 0.036538411
0.39914191 0.08691781 0.036460057
0.40108061 0.087581158 0.036412746
0.41261223 0.086774461 0.037076999
0.41501567 0.087078296 0.037012361
0.41736266 0.087100051 0.036946077
0.41970956 0.0871218 0.036879789
0.42236775 0.087234542 0.036805727
0.42514104 0.087284274 0.036727671
0.42784709 0.087109171 0.036648937
0.43026304 0.087018333 0.036579393
0.43267906 0.086927474 0.036509857
0.43539619 0.087045319 0.036434177
0.36043054 0.089544542 0.03658738
0.3627933 0.089699604 0.036522184
0.36686635 0.089952923 0.036409628
0.38662076 0.090554491 0.036856979
0.3888568 0.089741521 0.036784206
0.39144075 0.089563377 0.036708895
0.393866 0.089472175 0.036639079
0.39637595 0.089672297 0.036570229
0.39913619 0.089678943 0.036492057
0.40175441 0.090101115 0.036422692
0.41338176 0.088459879 0.037074625
0.4141871 0.088429585 0.037051439
0.41772774 0.089641035 0.036965016
0.41988543 0.089828819 0.036906011
0.42793867 0.08952599 0.036674201
0.43035468 0.089435138 0.036604658
0.43278596 0.089747094 0.036539327
0.43532461 0.089620598 0.036465894
0.43724573 0.090386152 0.036420256
0.36045089 0.092226632 0.036617722
0.36290097 0.092540994 0.036551889
0.36736444 0.092373155 0.036423415
0.38635257 0.092022352 0.036881495
0.38870314 0.092095934 0.036815699
0.39161965 0.092148229 0.03673362
0.39632696 0.092457145 0.036603726
0.39883927 0.092524648 0.036533281
0.40145475 0.092286505 0.036656477
0.40426558 0.092634752 0.037381191
0.40657532 0.093287416 0.037323236
0.4183664 0.092306204 0.036977638
0.41997707 0.092245638 0.036931276
0.4278155 0.092354253 0.0367103
0.4304615 0.092254765 0.036634136
0.43289277 0.092566714 0.036568806
0.43530878 0.092475861 0.036499262
0.43762794 0.092489496 0.036433671
0.3608771 0.094893441 0.03663639
0.36283401 0.095063753 0.036582869
0.36786252 0.094793357 0.036437187
0.38674337 0.093789354 0.036890775
0.38852707 0.094843633 0.036852375
0.39124233 0.09500853 0.036777291
0.39893121 0.094950795 0.036558643
0.40153089 0.09495616 0.037485484
0.40417698 0.094856665 0.037409324
0.40702543 0.095233597 0.037332907
0.40882462 0.095892027 0.0372895
0.41814193 0.094896257 0.037013859
0.42006862 0.094662458 0.036956534
0.42256892 0.094861798 0.036887951
0.42765218 0.095059939 0.036746126
0.43056846 0.095074378 0.036663607
0.43298441 0.094983533 0.03659407
0.43540037 0.094892688 0.036524527
0.43797436 0.094715223 0.036449511
0.43944228 0.095144071 0.036412835
0.36065093 0.097503506 0.03667289
0.36267975 0.097427197 0.036614485
0.36795485 0.09722884 0.03646265
0.36987409 0.097834148 0.036415219
0.38851348 0.097772136 0.036886517
0.39134303 0.097665735 0.036805067
0.40405375 0.097684935 0.037445415
0.40687239 0.097578943 0.037364285
0.40909469 0.097697064 0.037302643
0.41748342 0.097381614 0.037061173
0.42005518 0.09757968 0.036990553
0.42252016 0.097635917 0.036921315
0.42502275 0.097703174 0.036851145
0.42743874 0.097612321 0.036781594
0.43025741 0.097506344 0.036700469
0.43307602 0.097400345 0.036619335
0.43549198 0.097309485 0.036549792
0.43799457 0.097376741 0.036479615
0.35833943 0.10084236 0.0367769
0.36016798 0.10007674 0.036716245
0.36265871 0.099793047 0.036642361
0.3655577 0.10009668 0.036563672
0.36806259 0.10007024 0.036492355
0.37041494 0.10048988 0.036430497
0.38698861 0.1002591 0.036958415
0.38860548 0.10019828 0.036911879
0.39103079 0.10010708 0.036842063
0.39920214 0.099961795 0.03660873
0.40155575 0.10011625 0.036543783
0.40683845 0.099956684 0.037301704
0.40952098 0.10007888 0.037318017
0.41233546 0.10037003 0.037241582
0.41471952 0.10034953 0.037173752
0.41697675 0.10013264 0.037107259
0.4198797 0.10031684 0.03702708
0.42269838 0.10021085 0.03694595
0.42511439 0.10011999 0.036876403
0.42753029 0.10002915 0.036806867
0.43034896 0.099923141 0.036725733
0.4332543 0.099975251 0.036643963
0.43559885 0.10012913 0.036579266
0.43794581 0.10015088 0.036512982
0.35782573 0.10260378 0.036811788
0.36011136 0.10256426 0.036746524
0.36247408 0.10271933 0.036681332
0.36817026 0.10291163 0.036522057
0.37060487 0.10282009 0.036451977
0.37615141 0.10269129 0.037293702
0.37810314 0.10272832 0.037238792
0.3807717 0.1028415 0.037164442
0.38325199 0.10313291 0.037097488
0.38637704 0.10281292 0.037005197
0.38869745 0.10262443 0.036937241
0.39112273 0.10253324 0.036867429
0.39395228 0.10242683 0.036785986
0.39667624 0.10282279 0.036713317
0.39915311 0.10274665 0.036642224
0.40166304 0.10294676 0.036573373
0.40948686 0.10272454 0.037349485
0.41223648 0.10273114 0.037271604
0.41473672 0.10293049 0.037203021
0.41715273 0.10283965 0.037133478
0.41985875 0.10266454 0.037054744
0.42263198 0.10271428 0.036976688
0.42520595 0.1025368 0.036901668
0.42762196 0.10244596 0.036832131
0.43005323 0.10275792 0.036766797
0.4327943 0.10273552 0.036688823
0.43570572 0.10294873 0.036608741
0.43801722 0.10276097 0.036541048
0.35782561 0.1044388 0.036832936
0.36022022 0.10519788 0.036773805
0.36258176 0.10556072 0.036711033
0.37069717 0.10525555 0.036477439
0.37633336 0.10535701 0.037319273
0.37827978 0.10544579 0.037265114
0.38070503 0.1053546 0.037195306
0.38353455 0.10524818 0.03711386
0.3863641 0.10514177 0.037032411
0.38878939 0.10505058 0.036962602
0.39129937 0.10525069 0.036893751
0.39365533 0.10527254 0.03682721
0.3965002 0.1055705 0.036749989
0.40175498 0.10537291 0.036598735
0.40418032 0.10528171 0.036528923
0.40662071 0.10515243 0.036569409
0.40934911 0.10547267 0.037385069
0.41212234 0.10552239 0.037307024
0.41482833 0.10534731 0.037228286
0.41724429 0.10525645 0.037158743
0.4196603 0.10516561 0.037089199
0.42247891 0.10505962 0.037008066
0.42531288 0.10535643 0.03693115
0.4277288 0.10526558 0.036861606
0.43016005 0.10557753 0.036796272
0.4328661 0.10540244 0.036717534
0.43563932 0.10545217 0.036639489
0.43772402 0.10513175 0.036576688
0.3606452 0.10807251 0.036794897
0.36267406 0.10799621 0.036736492
0.37078953 0.10769103 0.036502898
0.37490878 0.10916211 0.03640306
0.38157478 0.10694163 0.037188947
0.38348159 0.10740984 0.03714028
0.38617608 0.10780984 0.037068505
0.3888967 0.10788108 0.036992192
0.39125034 0.10803554 0.036927246
0.39376262 0.10810304 0.036856797
0.39634654 0.1079249 0.036781486
0.39913052 0.10797483 0.03670314
0.40184698 0.10779905 0.036624096
0.40427223 0.10770786 0.036554284
0.40669763 0.10761666 0.036484476
0.40925327 0.10805604 0.037195243
0.41210136 0.10787011 0.037334684
0.41491994 0.10776412 0.037253547
0.41733596 0.10767327 0.037184007
0.41983622 0.10787261 0.037115421
0.42240885 0.10777064 0.03704131
0.42512968 0.10826028 0.036969814
0.42783567 0.1080852 0.03689108
0.43025166 0.10799435 0.036821537
0.43266764 0.1079035 0.036752
0.43548629 0.1077975 0.036670864
0.43751985 0.10803378 0.036866046
0.36073756 0.11050797 0.036820352
0.36276639 0.11043167 0.036761954
0.365201 0.11034012 0.036691874
0.36763567 0.11024857 0.036621798
0.37056956 0.11046345 0.036541097
0.37326229 0.11055434 0.036465805
0.3751809 0.11098108 0.036416329
0.3838788 0.11076934 0.037167747
0.38594502 0.11051512 0.037106242
0.38884535 0.11079854 0.037027281
0.39142931 0.11062039 0.036951974
0.39385459 0.11052919 0.036882158
0.3962799 0.110438 0.03681235
0.39910939 0.11033159 0.036730904
0.40193897 0.1102252 0.036649458
0.40437958 0.11053836 0.036583874
0.40680489 0.11044716 0.036514062
0.40934497 0.11047424 0.037220523
0.41194829 0.11021546 0.037366059
0.41483739 0.11049779 0.037287407
0.4174428 0.11049289 0.037213482
0.41978747 0.11064675 0.037148789
0.42229006 0.11071399 0.037078608
0.42510867 0.11060799 0.036997478
0.42792729 0.110502 0.036916345
0.43034327 0.11041117 0.036846802
0.43275926 0.11032032 0.036777265
0.43546525 0.11014523 0.03669852
0.43731752 0.11089575 0.037254937
0.36082983 0.11294346 0.036845814
0.36285868 0.11286717 0.036787417
0.36537829 0.11306804 0.036718298
0.37025872 0.11318014 0.036581222
0.37314722 0.11336716 0.036501493
0.38391581 0.11317058 0.037194382
0.3858622 0.11325935 0.037140224
0.38869166 0.11315293 0.037058782
0.39394653 0.11295535 0.03690752
0.39637184 0.11286415 0.036837712
0.39900693 0.11296752 0.036764201
0.40448681 0.11336887 0.036613468
0.40692711 0.11323544 0.03665391
0.40955251 0.11296783 0.03746571
0.41189715 0.11312169 0.037401013
0.41754967 0.1133125 0.037242964
0.41996565 0.11322166 0.037173416
0.42238164 0.11313081 0.037103876
0.42495561 0.11295334 0.037028857
0.42772886 0.11300308 0.036950804
0.43043488 0.11282798 0.03687207
0.4328661 0.11313993 0.036806736
0.43528211 0.11304909 0.036737196
0.43732038 0.11318675 0.037181225
0.34185624 0.11605972 0.036419168
0.36117178 0.11553214 0.036865968
0.36296642 0.11570856 0.036817119
0.36532909 0.1158636 0.036751918
0.36785102 0.11593136 0.036681205
0.37028569 0.11583981 0.036611125
0.37312612 0.11573302 0.036529366
0.37596652 0.1156262 0.036447607
0.38433731 0.11574629 0.037212122
0.38595414 0.11568548 0.03716559
0.38867065 0.1155097 0.037086546
0.39412311 0.1156728 0.036933843
0.39647916 0.11569465 0.036867302
0.3988328 0.1158491 0.036802355
0.4045788 0.11579502 0.03663883
0.40717503 0.11574785 0.037201349
0.40950367 0.11574195 0.037499074
0.41200399 0.1159413 0.037430488
0.41723859 0.11574447 0.037279814
0.42005727 0.11563848 0.037198678
0.42247322 0.11554763 0.037129141
0.42488921 0.11545677 0.037059598
0.4278006 0.11567001 0.036979515
0.43054175 0.11564761 0.036901541
0.432973 0.11595955 0.036836214
0.43538898 0.1158687 0.036766671
0.4371981 0.1155029 0.03696128
0.34224284 0.11818743 0.036432743
0.36266831 0.11856519 0.036858503
0.36550874 0.11845839 0.036776744
0.37037802 0.1182753 0.036636587
0.37281263 0.11818375 0.036566503
0.37565303 0.11807693 0.036484744
0.38604608 0.11811164 0.037190951
0.38847145 0.11802043 0.037121139
0.39407414 0.11845765 0.036967341
0.39658642 0.11852516 0.036896892
0.39901173 0.11843395 0.03682708
0.40426657 0.11823636 0.036675826
0.40717873 0.11833533 0.037094645
0.40967965 0.11844897 0.037525296
0.41209555 0.11835812 0.037455752
0.41733024 0.11816129 0.037305076
0.42014888 0.11805529 0.03722395
0.42264912 0.11825463 0.03715536
0.42499617 0.11827639 0.037089076
0.42734069 0.11843024 0.037024371
0.430246 0.11848235 0.036942612
0.43306458 0.11837637 0.036861479
0.43548059 0.11828552 0.036791936
0.43709123 0.11822496 0.036745567
0.34204155 0.12094935 0.036470283
0.3437843 0.12118986 0.036423653
0.36076254 0.1218888 0.036950856
0.36264718 0.12093104 0.036886375
0.36544183 0.12098116 0.036807723
0.37047032 0.12071078 0.036662042
0.37290499 0.12061923 0.036591966
0.37567654 0.12084019 0.036515936
0.38615343 0.12094212 0.037220541
0.38857868 0.12085093 0.037150729
0.39384887 0.1210577 0.0370037
0.39667836 0.12095131 0.036922254
0.3991037 0.1208601 0.036852442
0.40424547 0.12059314 0.03670359
0.40706989 0.12096595 0.036718767
0.40977123 0.12086579 0.037550561
0.41218722 0.12077493 0.037481021
0.4146032 0.12068409 0.037411474
0.4172416 0.12065821 0.037336379
0.41993663 0.12096757 0.037263535
0.42260036 0.12102877 0.037188727
0.42510295 0.12109601 0.037118547
0.4275189 0.12100518 0.03704901
0.43033764 0.12089919 0.036967877
0.43315625 0.12079321 0.03688674
0.43557215 0.12070235 0.0368172
0.43740398 0.12093374 0.037018053
0.34234565 0.12359023 0.036492117
0.34418631 0.12372503 0.036441475
0.34584653 0.12447871 0.03640309
0.3606289 0.12372304 0.036975779
0.3624472 0.12345142 0.036921103
0.36528757 0.12334462 0.03683934
0.368128 0.1232378 0.036757585
0.37064761 0.12343869 0.036688466
0.37301263 0.12346061 0.036621667
0.37546268 0.12377498 0.03655583
0.38054252 0.12378721 0.036411956
0.38626069 0.12377266 0.037250128
0.388686 0.12368144 0.037180319
0.39111128 0.12359025 0.037110511
0.39394084 0.12348384 0.037029061
0.39677036 0.12337746 0.036947615
0.39919561 0.12328626 0.036877807
0.40170795 0.12335376 0.036807362
0.40406159 0.12350821 0.036742408
0.40678215 0.12357946 0.036666103
0.40980542 0.1234684 0.037134934
0.4123655 0.12334985 0.037505649
0.41471004 0.12350369 0.037440952
0.41705701 0.12352547 0.037374668
0.41995993 0.12370968 0.037294488
0.42277861 0.12360369 0.037213355
0.42519453 0.12351283 0.037143812
0.42761055 0.12342197 0.037074275
0.43002653 0.12333112 0.037004728
0.43294284 0.12334558 0.03692222
0.43567905 0.12352195 0.036846675
0.34261879 0.12541619 0.036505431
0.34427896 0.12616986 0.036467042
0.34611967 0.12630466 0.036416404
0.36021012 0.12607612 0.037014782
0.36253953 0.1258869 0.036946561
0.36531481 0.1258503 0.036867455
0.3680082 0.12620389 0.036795173
0.37059844 0.12623425 0.036722086
0.37312034 0.126302 0.036651373
0.37555498 0.12621045 0.036581293
0.38644987 0.12609389 0.037271526
0.38877794 0.12610759 0.037205681
0.39120328 0.12601639 0.037135873
0.39362857 0.1259252 0.037066057
0.39655611 0.12593971 0.036983229
0.39930296 0.12611677 0.036907393
0.40165892 0.1261386 0.036840856
0.40675277 0.12616058 0.036696691
0.40953672 0.12621051 0.036618341
0.41234088 0.12601988 0.037203632
0.41481695 0.12632334 0.03747043
0.41723293 0.12623248 0.037400886
0.41964892 0.12614164 0.037331343
0.4224675 0.12603563 0.03725021
0.42528617 0.12592965 0.037169084
0.42770216 0.12583882 0.037099537
0.43277952 0.12605125 0.036958039
0.43562794 0.1264282 0.036881633
0.34437168 0.12861466 0.03649259
0.34658733 0.12864792 0.036430169
0.35858947 0.12888089 0.037093058
0.36019722 0.12841392 0.0370421
0.36264721 0.12872829 0.036976267
0.36501226 0.12875022 0.036909465
0.36793759 0.12893583 0.036828671
0.37077808 0.12882905 0.036746912
0.37321264 0.12873749 0.036676828
0.37564728 0.12864593 0.036606755
0.37808195 0.12855437 0.036536675
0.38092232 0.12844758 0.036454912
0.38299733 0.12958902 0.036409244
0.38704327 0.12839997 0.037281282
0.38886991 0.12853374 0.037231043
0.39129519 0.12844254 0.037161235
0.39373586 0.1287557 0.037095647
0.39639214 0.12865582 0.037019193
0.39925161 0.12903421 0.036942486
0.40183553 0.12885606 0.036867175
0.40668616 0.12867367 0.036727555
0.40951565 0.12856726 0.036646109
0.41226223 0.12851134 0.036692657
0.41490856 0.12874013 0.037495691
0.41732454 0.12864929 0.037426151
0.41912889 0.12837976 0.037371889
0.42293128 0.12763171 0.037255466
0.42546213 0.12863666 0.037195299
0.427809 0.12865841 0.037129011
0.43024027 0.12897038 0.037063681
0.4354749 0.12877353 0.036913007
0.34446436 0.13105947 0.036518157
0.34699363 0.13126113 0.036448769
0.34856853 0.13172124 0.036409426
0.3586818 0.13131636 0.037118524
0.36030486 0.13125531 0.037071805
0.36275485 0.13156968 0.037005965
0.36762416 0.13138658 0.036865808
0.37046453 0.13127975 0.036784049
0.37330496 0.13117297 0.03670229
0.3757396 0.1310814 0.036632214
0.37826157 0.13114917 0.036561497
0.38289052 0.13153516 0.03643471
0.3891328 0.13119641 0.037254289
0.39140248 0.13127305 0.037190821
0.39384314 0.13158621 0.037125237
0.39626843 0.13149501 0.037055429
0.39909795 0.13138862 0.036973983
0.40192747 0.13128221 0.036892537
0.40435278 0.13119102 0.036822725
0.40942669 0.13107385 0.036677524
0.41213217 0.13138442 0.036604404
0.4150002 0.13115697 0.03752096
0.41741613 0.13106613 0.037451416
0.41899633 0.13115558 0.037074149
0.42609629 0.13134477 0.037208542
0.4279159 0.13147806 0.037158489
0.43033189 0.13138719 0.037088946
0.43274787 0.13129634 0.037019406
0.34457245 0.13391174 0.036547966
0.34694418 0.13406739 0.036482524
0.35877413 0.13375184 0.03714399
0.36025336 0.13418402 0.037107028
0.36284721 0.13400517 0.037031427
0.36528185 0.13391362 0.036961347
0.36771646 0.13382207 0.03689127
0.37044343 0.13364562 0.036811922
0.37323809 0.13369574 0.036733273
0.37584731 0.13392282 0.036661915
0.37821236 0.13394473 0.036595121
0.38073194 0.13414562 0.036525998
0.38345891 0.13396917 0.036446657
0.38482046 0.13480486 0.036417693
0.38968316 0.13396978 0.037270658
0.39150977 0.13410355 0.037220411
0.39393508 0.13401236 0.037150603
0.39894432 0.13374302 0.03700548
0.40172827 0.13379294 0.03692713
0.40444475 0.13361716 0.036848091
0.40688539 0.13393033 0.036782507
0.40924132 0.13395217 0.036715962
0.41215551 0.13413708 0.036635477
0.41500843 0.13392986 0.036774538
0.41744286 0.13378833 0.036815047
0.41943145 0.13386349 0.036426041
0.42638159 0.13355261 0.037225902
0.42784953 0.13398147 0.037189234
0.4304235 0.13380401 0.037114214
0.43283945 0.13371316 0.037044667
0.34712449 0.13667212 0.036507439
0.36064875 0.13603899 0.037117202
0.36293954 0.13644063 0.037056889
0.36537415 0.13634908 0.036986809
0.36780882 0.13625753 0.036916729
0.37032843 0.13645841 0.03684761
0.37309918 0.13646509 0.036769137
0.37595499 0.1367642 0.036691621
0.37838963 0.13667265 0.036621541
0.3808243 0.13658109 0.036551461
0.38528776 0.13641326 0.036422983
0.38995424 0.13578179 0.037283868
0.39160177 0.1365297 0.037245773
0.39402708 0.1364385 0.037175968
0.39887768 0.13625611 0.037036344
0.40180027 0.13647015 0.036955949
0.40455201 0.13644767 0.036877681
0.40699264 0.13676083 0.036812093
0.40941799 0.13666964 0.036742285
0.4118433 0.13657843 0.036672477
0.41467276 0.13647203 0.036591027
0.41750231 0.13636564 0.036509581
0.41992763 0.13627444 0.036439773
0.42769647 0.1363268 0.037220608
0.43051508 0.13622081 0.037139475
0.43294632 0.13653278 0.037074145
0.35150185 0.13915984 0.036412023
0.36381263 0.13803378 0.037050515
0.36555377 0.13894388 0.037011631
0.37027925 0.139254 0.036881234
0.37296036 0.13923445 0.036804996
0.37575501 0.1392846 0.036726348
0.37848192 0.13910814 0.036646999
0.3809166 0.13901657 0.036576923
0.38578588 0.13883346 0.036436763
0.38747048 0.14039609 0.036407024
0.39179093 0.13885096 0.037267175
0.39411902 0.13886465 0.03720133
0.39662898 0.13906477 0.037132472
0.39898494 0.13908662 0.037065934
0.40133858 0.13924107 0.037000988
0.40425512 0.13929337 0.036918905
0.40708461 0.13918698 0.036837455
0.40950996 0.13909578 0.036767647
0.41193524 0.13900459 0.036697838
0.41465175 0.13882881 0.036618795
0.41752914 0.13901511 0.036539368
0.42552665 0.13936651 0.037317168
0.42770213 0.13893305 0.037250489
0.43039626 0.13916419 0.03717678
0.43305323 0.1393524 0.037103623
0.36359149 0.14291999 0.0371131
0.36550462 0.14173946 0.037045255
0.37045884 0.14184877 0.03690606
0.37289348 0.14175722 0.03683598
0.37573388 0.14165042 0.036754217
0.37857425 0.14154361 0.036672462
0.38100889 0.14145207 0.036602382
0.38352853 0.14165296 0.036533263
0.38589355 0.14167488 0.036466468
0.3878628 0.14216991 0.036416341
0.39230418 0.1408226 0.037275344
0.39399973 0.14181937 0.037238777
0.39657995 0.14184961 0.037165966
0.39909226 0.14191712 0.037095521
0.40151754 0.14182593 0.037025712
0.40434706 0.14171953 0.036944266
0.40717661 0.14161313 0.036862817
0.41202724 0.14143074 0.0367232
0.41446781 0.1417439 0.036657613
0.41713807 0.14157389 0.036722876
0.42000183 0.14192429 0.036702897
0.42247027 0.14194915 0.036433104
0.42515364 0.14177637 0.037355524
0.42742091 0.1418231 0.037291788
0.43032619 0.14187521 0.037210021
0.43314481 0.14176922 0.037128881
0.43556076 0.14167838 0.037059344
0.43797678 0.14158753 0.036989801
0.36056259 0.14520185 0.037225287
0.3624357 0.14458942 0.037165113
0.3652761 0.14448261 0.037083354
0.36811653 0.1443758 0.037001599
0.37055111 0.14428425 0.036931518
0.37298578 0.14419271 0.036861438
0.37542039 0.14410114 0.036791358
0.37835917 0.1441157 0.036708213
0.3811166 0.14429344 0.036632083
0.3834793 0.14444849 0.036566891
0.38833827 0.14452998 0.036430076
0.39443085 0.14442077 0.037256539
0.39675891 0.14443447 0.037190694
0.3991842 0.14434327 0.037120886
0.40160948 0.14425208 0.037051074
0.40403482 0.14416087 0.036981262
0.40686432 0.14405447 0.03689982
0.40970922 0.14435244 0.036822598
0.41213444 0.14426124 0.036752786
0.41718376 0.14427629 0.0376103
0.41978765 0.14425626 0.037250392
0.42515069 0.14410533 0.037182361
0.42769599 0.14429355 0.037312467
0.4301731 0.14422055 0.037241392
0.43294632 0.14427027 0.037163347
0.43565241 0.14409518 0.037084609
0.43806842 0.14400434 0.037015066
0.34996998 0.1471744 0.03654784
0.35241401 0.14708251 0.036477495
0.35437536 0.14717197 0.036422919
0.36009338 0.14711644 0.037260652
0.36252803 0.1470249 0.037190575
0.36525491 0.14684843 0.037111226
0.36804962 0.14689855 0.037032578
0.37064347 0.14671972 0.036956977
0.37307808 0.14662817 0.036886901
0.3755281 0.14694254 0.036821064
0.37808642 0.14681506 0.036747064
0.38093203 0.14721975 0.036671054
0.38365892 0.14704329 0.036591709
0.38609356 0.14695174 0.036521628
0.3901667 0.14720505 0.036409065
0.3966957 0.14632654 0.037214305
0.39917126 0.14667213 0.037148099
0.40168616 0.14627387 0.037072212
0.40422398 0.14648212 0.037002657
0.40688768 0.14680713 0.036930885
0.40965787 0.14726989 0.036857687
0.41224179 0.14709175 0.036782376
0.41713491 0.14705043 0.037643664
0.42001116 0.14686444 0.03701425
0.42275143 0.14669655 0.036479864
0.42495447 0.1468451 0.03641912
0.42846555 0.14597896 0.037310064
0.43020359 0.1466195 0.037268188
0.43302301 0.14673845 0.037189629
0.43575922 0.14691482 0.037114087
0.43777257 0.14683911 0.037056133
0.34721139 0.14972645 0.036655471
0.34965539 0.14963454 0.036585122
0.3525067 0.14952733 0.036503047
